# .PCD v0.7 - Point Cloud Data file format
VERSION 0.7
FIELDS x y z
SIZE 4 4 4
TYPE F F F
COUNT 1 1 1
WIDTH 1463
HEIGHT 1
VIEWPOINT 0 0 0 1 0 0 0
POINTS 1463
DATA ascii
-0.29925397 0.15422304 1.1321701
-0.29721129 0.15422304 1.1321701
-0.29516858 0.15422304 1.1321701
-0.2931259 0.15422304 1.1321701
-0.29108322 0.15422304 1.1321701
-0.28904054 0.15422304 1.1321701
-0.28699782 0.15422304 1.1321701
-0.28495514 0.15422304 1.1321701
-0.28291246 0.15422304 1.1321701
-0.28086978 0.15422304 1.1321701
-0.27882707 0.15422304 1.1321701
-0.27678439 0.15422304 1.1321701
-0.27474171 0.15422304 1.1321701
-0.272699 0.15422304 1.1321701
-0.27065632 0.15422304 1.1321701
-0.26861364 0.15422304 1.1321701
-0.26657096 0.15422304 1.1321701
-0.26452824 0.15422304 1.1321701
-0.26248556 0.15422304 1.1321701
-0.26044288 0.15422304 1.1321701
-0.25840017 0.15422304 1.1321701
-0.25635749 0.15422304 1.1321701
-0.25431481 0.15422304 1.1321701
-0.25227213 0.15422304 1.1321701
-0.25022942 0.15422304 1.1321701
-0.24818674 0.15422304 1.1321701
-0.24696711 0.15473872 1.1359558
-0.24719463 0.15617736 1.146517
-0.24742647 0.15764302 1.1572766
-0.24766234 0.15913622 1.1682384
-0.2479019 0.16065745 1.1794059
-0.55254662 0.1562655 1.1321684
-0.55050391 0.1562655 1.1321684
-0.54846126 0.1562655 1.1321684
-0.54641855 0.1562655 1.1321684
-0.5443759 0.1562655 1.1321684
-0.54233319 0.1562655 1.1321684
-0.54029047 0.1562655 1.1321684
-0.53824782 0.1562655 1.1321684
-0.53620511 0.1562655 1.1321684
-0.53416246 0.1562655 1.1321684
-0.53211975 0.1562655 1.1321684
-0.5300771 0.1562655 1.1321684
-0.52803439 0.1562655 1.1321684
-0.52599168 0.1562655 1.1321684
-0.52394903 0.1562655 1.1321684
-0.52190632 0.1562655 1.1321684
-0.51986367 0.1562655 1.1321684
-0.51782095 0.1562655 1.1321684
-0.51577824 0.1562655 1.1321684
-0.51373559 0.1562655 1.1321684
-0.51169288 0.1562655 1.1321684
-0.50965023 0.1562655 1.1321684
-0.50760752 0.1562655 1.1321684
-0.50556481 0.1562655 1.1321684
-0.50352216 0.1562655 1.1321684
-0.50147945 0.1562655 1.1321684
-0.49943677 0.1562655 1.1321684
-0.49739408 0.1562655 1.1321684
-0.4953514 0.1562655 1.1321684
-0.49330872 0.1562655 1.1321684
-0.49126604 0.1562655 1.1321684
-0.48922336 0.1562655 1.1321684
-0.48718065 0.1562655 1.1321684
-0.48513797 0.1562655 1.1321684
-0.48309529 0.1562655 1.1321684
-0.48105261 0.1562655 1.1321684
-0.47900993 0.1562655 1.1321684
-0.47696722 0.1562655 1.1321684
-0.47492453 0.1562655 1.1321684
-0.47288185 0.1562655 1.1321684
-0.46568045 0.15455338 1.1197639
-0.46366012 0.15455338 1.1197639
-0.46163982 0.15455338 1.1197639
-0.45961958 0.1545534 1.119764
-0.45759925 0.1545534 1.119764
-0.45557895 0.1545534 1.119764
-0.45355865 0.1545534 1.119764
-0.45153835 0.1545534 1.119764
-0.44975138 0.15463363 1.1203452
-0.44945017 0.15522772 1.1246495
-0.44914663 0.15582637 1.128987
-0.44884077 0.15642971 1.1333581
-0.44853252 0.15703769 1.1377631
-0.44822186 0.15765044 1.1422026
-0.44790879 0.158268 1.1466769
-0.44759321 0.1588904 1.1511862
-0.44727519 0.15951772 1.1557313
-0.44695464 0.16015002 1.1603124
-0.44663149 0.16078733 1.1649299
-0.44630578 0.16142975 1.1695843
-0.44597751 0.16207734 1.1742761
-0.44564652 0.16273011 1.1790056
-0.44531289 0.16338818 1.1837734
-0.44490507 0.16402525 1.1883891
-0.34850273 0.15455338 1.1197639
-0.3464824 0.15455338 1.1197639
-0.3444621 0.15455338 1.1197639
-0.3424418 0.15455338 1.1197639
-0.3404215 0.15455338 1.1197639
-0.3384012 0.15455338 1.1197639
-0.33638087 0.15455338 1.1197639
-0.33436057 0.15455338 1.1197639
-0.33446693 0.15554237 1.1269293
-0.33397919 0.1562655 1.1321684
-0.33193651 0.1562655 1.1321684
-0.32989383 0.1562655 1.1321684
-0.32785115 0.1562655 1.1321684
-0.32580844 0.1562655 1.1321684
-0.32376575 0.1562655 1.1321684
-0.32172307 0.1562655 1.1321684
-0.31968039 0.1562655 1.1321684
-0.31763771 0.1562655 1.1321684
-0.31559503 0.1562655 1.1321684
-0.31355232 0.1562655 1.1321684
-0.31150964 0.1562655 1.1321684
-0.30946696 0.1562655 1.1321684
-0.30742428 0.1562655 1.1321684
-0.3053816 0.1562655 1.1321684
-0.30333892 0.1562655 1.1321684
-0.3012962 0.1562655 1.1321684
-0.29925352 0.1562655 1.1321684
-0.29721084 0.1562655 1.1321684
-0.29516816 0.1562655 1.1321684
-0.29312548 0.1562655 1.1321684
-0.29108277 0.1562655 1.1321684
-0.28904009 0.1562655 1.1321684
-0.28699741 0.1562655 1.1321684
-0.28495473 0.1562655 1.1321684
-0.28291205 0.1562655 1.1321684
-0.28086936 0.1562655 1.1321684
-0.27882665 0.1562655 1.1321684
-0.27678397 0.1562655 1.1321684
-0.27474129 0.1562655 1.1321684
-0.27269861 0.1562655 1.1321684
-0.27065593 0.1562655 1.1321684
-0.26861325 0.1562655 1.1321684
-0.26657054 0.1562655 1.1321684
-0.26452786 0.1562655 1.1321684
-0.26248518 0.1562655 1.1321684
-0.2604425 0.1562655 1.1321684
-0.25839981 0.1562655 1.1321684
-0.25635713 0.1562655 1.1321684
-0.25431442 0.1562655 1.1321684
-0.25227174 0.1562655 1.1321684
-0.25022906 0.1562655 1.1321684
-0.24818638 0.1562655 1.1321684
-0.24732772 0.15701719 1.1376145
-0.24755894 0.15847915 1.1482067
-0.24779452 0.15996861 1.1589981
-0.24803439 0.16148622 1.1699934
-0.24827786 0.16303223 1.1811945
-0.55050319 0.15830797 1.1321669
-0.54846048 0.15830797 1.1321669
-0.54641783 0.15830797 1.1321669
-0.54437512 0.15830797 1.1321669
-0.54233247 0.15830797 1.1321669
-0.54028976 0.15830797 1.1321669
-0.53824705 0.15830797 1.1321669
-0.5362044 0.15830797 1.1321669
-0.53416169 0.15830797 1.1321669
-0.53211904 0.15830797 1.1321669
-0.53007632 0.15830797 1.1321669
-0.52803367 0.15830797 1.1321669
-0.52599096 0.15830797 1.1321669
-0.52394831 0.15830797 1.1321669
-0.5219056 0.15830797 1.1321669
-0.51986295 0.15830797 1.1321669
-0.51782024 0.15830797 1.1321669
-0.51577759 0.15830797 1.1321669
-0.51373488 0.15830797 1.1321669
-0.51169217 0.15830797 1.1321669
-0.50964952 0.15830797 1.1321669
-0.5076068 0.15830797 1.1321669
-0.50556415 0.15830797 1.1321669
-0.50352144 0.15830797 1.1321669
-0.50147879 0.15830797 1.1321669
-0.49943608 0.15830797 1.1321669
-0.4973934 0.15830797 1.1321669
-0.49535072 0.15830797 1.1321669
-0.49330798 0.15830795 1.1321667
-0.4912653 0.15830795 1.1321667
-0.48922262 0.15830795 1.1321667
-0.48717993 0.15830795 1.1321667
-0.48513725 0.15830795 1.1321667
-0.48309457 0.15830795 1.1321667
-0.48105189 0.15830795 1.1321667
-0.47900921 0.15830795 1.1321667
-0.47696653 0.15830795 1.1321667
-0.47492385 0.15830795 1.1321667
-0.47288117 0.15830795 1.1321667
-0.47083849 0.15830795 1.1321667
-0.4636595 0.15657346 1.1197623
-0.4616392 0.15657346 1.1197623
-0.4596189 0.15657346 1.1197623
-0.4575986 0.15657346 1.1197623
-0.45557827 0.15657346 1.1197623
-0.45355797 0.15657346 1.1197623
-0.45153767 0.15657346 1.1197623
-0.44951737 0.15657346 1.1197623
-0.44857207 0.15694959 1.1224523
-0.44826576 0.15755372 1.1267728
-0.4479571 0.15816253 1.1311268
-0.44764599 0.15877604 1.1355144
-0.44733253 0.15939435 1.1399363
-0.44701657 0.16001748 1.1443927
-0.44669813 0.1606455 1.1488842
-0.44637722 0.16127849 1.153411
-0.44605374 0.16191646 1.1579736
-0.44572774 0.16255952 1.1625726
-0.44539905 0.16320768 1.1672081
-0.44506025 0.16385828 1.1718609
-0.44449154 0.16443004 1.1759499
-0.44391885 0.1650058 1.1800677
-0.44334218 0.16558564 1.1842144
-0.44276136 0.16616952 1.1883901
-0.35052255 0.15657346 1.1197623
-0.34850222 0.15657346 1.1197623
-0.34648192 0.15657346 1.1197623
-0.34446162 0.15657346 1.1197623
-0.34244132 0.15657346 1.1197623
-0.34042102 0.15657346 1.1197623
-0.33840072 0.15657346 1.1197623
-0.33638042 0.15657346 1.1197623
-0.33519593 0.15696487 1.1225615
-0.33582711 0.15821642 1.1315122
-0.33397871 0.15830795 1.1321667
-0.33193603 0.15830795 1.1321667
-0.32989335 0.15830795 1.1321667
-0.32785064 0.15830795 1.1321667
-0.32580796 0.15830795 1.1321667
-0.32376528 0.15830795 1.1321667
-0.3217226 0.15830795 1.1321667
-0.31967992 0.15830795 1.1321667
-0.31763723 0.15830795 1.1321667
-0.31559455 0.15830795 1.1321667
-0.31355187 0.15830795 1.1321667
-0.31150919 0.15830795 1.1321667
-0.30946651 0.15830795 1.1321667
-0.30742383 0.15830795 1.1321667
-0.30538115 0.15830795 1.1321667
-0.30333847 0.15830795 1.1321667
-0.30129576 0.15830795 1.1321667
-0.29925308 0.15830795 1.1321667
-0.2972104 0.15830795 1.1321667
-0.29516771 0.15830795 1.1321667
-0.29312503 0.15830795 1.1321667
-0.29108235 0.15830795 1.1321667
-0.28903967 0.15830795 1.1321667
-0.28699699 0.15830795 1.1321667
-0.28495431 0.15830795 1.1321667
-0.28291163 0.15830795 1.1321667
-0.28086895 0.15830795 1.1321667
-0.27882627 0.15830795 1.1321667
-0.27678359 0.15830795 1.1321667
-0.2747409 0.15830795 1.1321667
-0.27269819 0.15830795 1.1321667
-0.27065551 0.15830795 1.1321667
-0.26861283 0.15830795 1.1321667
-0.26657015 0.15830795 1.1321667
-0.26452747 0.15830795 1.1321667
-0.26248479 0.15830795 1.1321667
-0.26044211 0.15830795 1.1321667
-0.25839943 0.15830795 1.1321667
-0.25635675 0.15830795 1.1321667
-0.25431406 0.15830795 1.1321667
-0.25227138 0.15830795 1.1321667
-0.2502287 0.15830795 1.1321667
-0.24818601 0.15830795 1.1321667
-0.24768937 0.15930229 1.1392779
-0.2479243 0.16078772 1.1499013
-0.24816369 0.16230114 1.1607248
-0.24840753 0.16384326 1.1717535
-0.24865496 0.16541424 1.1829886
-0.55050236 0.16035041 1.1321652
-0.54845971 0.16035041 1.1321652
-0.546417 0.16035041 1.1321652
-0.54437435 0.16035041 1.1321652
-0.54233164 0.16035041 1.1321652
-0.54028898 0.16035041 1.1321652
-0.53824627 0.16035041 1.1321652
-0.53620362 0.16035041 1.1321652
-0.53416091 0.16035041 1.1321652
-0.53211826 0.16035041 1.1321652
-0.53007555 0.16035041 1.1321652
-0.5280329 0.16035041 1.1321652
-0.52599019 0.16035041 1.1321652
-0.52394754 0.16035041 1.1321652
-0.52190483 0.16035041 1.1321652
-0.51986217 0.16035041 1.1321652
-0.51781946 0.16035041 1.1321652
-0.51577681 0.16035041 1.1321652
-0.5137341 0.16035041 1.1321652
-0.51169145 0.16035041 1.1321652
-0.50964874 0.16035041 1.1321652
-0.50760609 0.16035041 1.1321652
-0.50556338 0.16035041 1.1321652
-0.50352073 0.16035041 1.1321652
-0.50147802 0.16035041 1.1321652
-0.49943537 0.16035041 1.1321652
-0.49739268 0.16035041 1.1321652
-0.49535 0.16035041 1.1321652
-0.49330732 0.16035041 1.1321652
-0.49126464 0.16035041 1.1321652
-0.48922196 0.16035041 1.1321652
-0.48717928 0.16035041 1.1321652
-0.4851366 0.16035041 1.1321652
-0.48309392 0.16035041 1.1321652
-0.48105124 0.16035041 1.1321652
-0.47900856 0.16035041 1.1321652
-0.47696587 0.16035041 1.1321652
-0.47492319 0.16035041 1.1321652
-0.47288051 0.16035041 1.1321652
-0.47083783 0.16035041 1.1321652
-0.46365881 0.15859354 1.1197606
-0.46163851 0.15859354 1.1197606
-0.45961824 0.15859355 1.1197608
-0.45759794 0.15859355 1.1197608
-0.45557764 0.15859355 1.1197608
-0.45355734 0.15859355 1.1197608
-0.45153704 0.15859355 1.1197608
-0.44951674 0.15859355 1.1197608
-0.4476974 0.15866476 1.1202636
-0.44738829 0.15927429 1.1245672
-0.44707686 0.15988854 1.1289041
-0.44676301 0.16050753 1.1332746
-0.44644669 0.16113134 1.137679
-0.44612792 0.16176 1.1421177
-0.44580665 0.1623936 1.1465913
-0.44548285 0.16303219 1.1511
-0.44515651 0.16367581 1.1556444
-0.4446508 0.16425923 1.1597637
-0.44408658 0.16482647 1.1637686
-0.44351843 0.1653976 1.1678013
-0.44294634 0.16597274 1.171862
-0.4423703 0.16655189 1.1759511
-0.44179019 0.16713509 1.1800689
-0.44120598 0.16772237 1.1842154
-0.44061768 0.16831382 1.1883913
-0.35052201 0.15859354 1.1197606
-0.34850171 0.15859354 1.1197606
-0.34648141 0.15859354 1.1197606
-0.34446111 0.15859354 1.1197606
-0.34244081 0.15859354 1.1197606
-0.34042051 0.15859354 1.1197606
-0.33840021 0.15859354 1.1197606
-0.33637992 0.15859354 1.1197606
-0.33654961 0.1596323 1.1270949
-0.33602092 0.16035041 1.1321652
-0.33397824 0.16035041 1.1321652
-0.33193555 0.16035041 1.1321652
-0.32989287 0.16035041 1.1321652
-0.32785019 0.16035041 1.1321652
-0.32580751 0.16035041 1.1321652
-0.32376483 0.16035041 1.1321652
-0.32172215 0.16035041 1.1321652
-0.31967947 0.16035041 1.1321652
-0.31763679 0.16035041 1.1321652
-0.31559411 0.16035041 1.1321652
-0.31355146 0.16035041 1.1321652
-0.31150877 0.16035041 1.1321652
-0.30946609 0.16035041 1.1321652
-0.30742341 0.16035041 1.1321652
-0.30538073 0.16035041 1.1321652
-0.30333805 0.16035041 1.1321652
-0.30129537 0.16035041 1.1321652
-0.29925269 0.16035041 1.1321652
-0.29721001 0.16035041 1.1321652
-0.29516733 0.16035041 1.1321652
-0.29312465 0.16035041 1.1321652
-0.29108196 0.16035041 1.1321652
-0.28903928 0.16035041 1.1321652
-0.2869966 0.16035041 1.1321652
-0.28495392 0.16035041 1.1321652
-0.28291124 0.16035041 1.1321652
-0.28086856 0.16035041 1.1321652
-0.27882588 0.16035041 1.1321652
-0.2767832 0.16035041 1.1321652
-0.27474052 0.16035041 1.1321652
-0.27269784 0.16035041 1.1321652
-0.27065516 0.16035041 1.1321652
-0.26861247 0.16035041 1.1321652
-0.26656979 0.16035041 1.1321652
-0.26452711 0.16035041 1.1321652
-0.26248443 0.16035041 1.1321652
-0.26044175 0.16035041 1.1321652
-0.25839907 0.16035041 1.1321652
-0.25635639 0.16035041 1.1321652
-0.25431371 0.16035041 1.1321652
-0.25227103 0.16035041 1.1321652
-0.25022835 0.16035041 1.1321652
-0.24818566 0.16035041 1.1321652
-0.24805208 0.16159409 1.1409463
-0.24829075 0.16310313 1.151601
-0.24853393 0.16464062 1.1624565
-0.24878173 0.16620737 1.1735187
-0.24903321 0.1678035 1.1847882
-0.55050159 0.16239285 1.1321635
-0.54845887 0.16239285 1.1321635
-0.54641622 0.16239285 1.1321635
-0.54437351 0.16239285 1.1321635
-0.54233086 0.16239285 1.1321635
-0.54028815 0.16239285 1.1321635
-0.5382455 0.16239285 1.1321635
-0.53620279 0.16239285 1.1321635
-0.53416014 0.16239285 1.1321635
-0.53211749 0.16239285 1.1321635
-0.53007478 0.16239285 1.1321635
-0.52803212 0.16239285 1.1321635
-0.52598941 0.16239285 1.1321635
-0.52394676 0.16239285 1.1321635
-0.52190405 0.16239285 1.1321635
-0.5198614 0.16239285 1.1321635
-0.51781869 0.16239285 1.1321635
-0.51577604 0.16239285 1.1321635
-0.51373339 0.16239285 1.1321635
-0.51169068 0.16239285 1.1321635
-0.50964803 0.16239285 1.1321635
-0.50760531 0.16239285 1.1321635
-0.50556266 0.16239285 1.1321635
-0.50351995 0.16239285 1.1321635
-0.5014773 0.16239285 1.1321635
-0.49943462 0.16239285 1.1321635
-0.49739194 0.16239285 1.1321635
-0.49534926 0.16239285 1.1321635
-0.49330658 0.16239285 1.1321635
-0.49126393 0.16239285 1.1321635
-0.48922125 0.16239285 1.1321635
-0.48717856 0.16239285 1.1321635
-0.48513588 0.16239285 1.1321635
-0.4830932 0.16239285 1.1321635
-0.48105052 0.16239285 1.1321635
-0.47900784 0.16239285 1.1321635
-0.47696516 0.16239285 1.1321635
-0.47492248 0.16239285 1.1321635
-0.47287983 0.16239285 1.1321635
-0.47083715 0.16239285 1.1321635
-0.46879447 0.16239285 1.1321635
-0.46163785 0.16061361 1.1197591
-0.45961756 0.16061361 1.1197591
-0.45759726 0.16061361 1.1197591
-0.45557696 0.16061361 1.1197591
-0.45355669 0.16061361 1.1197591
-0.45153639 0.16061361 1.1197591
-0.44951609 0.16061361 1.1197591
-0.44749579 0.16061361 1.1197591
-0.44651428 0.16098814 1.1223702
-0.44620007 0.16160777 1.1266901
-0.44588345 0.16223219 1.1310434
-0.44556439 0.16286147 1.1354306
-0.44524282 0.16349563 1.1398518
-0.44480571 0.16409306 1.144017
-0.44424972 0.16465199 1.1479137
-0.44368988 0.16521473 1.151837
-0.44312626 0.16578135 1.1557873
-0.44255874 0.16635185 1.1597648
-0.44198728 0.16692631 1.1637697
-0.44141188 0.16750476 1.1678025
-0.4408325 0.16808721 1.1718632
-0.44024903 0.16867372 1.1759522
-0.43966147 0.16926435 1.1800699
-0.43906984 0.16985913 1.1842166
-0.438474 0.17045811 1.1883925
-0.35254183 0.16061361 1.1197591
-0.35052153 0.16061361 1.1197591
-0.34850124 0.16061361 1.1197591
-0.34648094 0.16061361 1.1197591
-0.34446064 0.16061361 1.1197591
-0.34244034 0.16061361 1.1197591
-0.34042004 0.16061361 1.1197591
-0.33839974 0.16061361 1.1197591
-0.33727068 0.16103914 1.1227258
-0.33792263 0.16232538 1.1316931
-0.33602044 0.16239285 1.1321635
-0.33397776 0.16239285 1.1321635
-0.33193508 0.16239285 1.1321635
-0.3298924 0.16239285 1.1321635
-0.32784972 0.16239285 1.1321635
-0.32580703 0.16239285 1.1321635
-0.32376435 0.16239285 1.1321635
-0.3217217 0.16239285 1.1321635
-0.31967902 0.16239285 1.1321635
-0.31763634 0.16239285 1.1321635
-0.31559366 0.16239285 1.1321635
-0.31355098 0.16239285 1.1321635
-0.3115083 0.16239285 1.1321635
-0.30946562 0.16239285 1.1321635
-0.30742294 0.16239285 1.1321635
-0.30538025 0.16239285 1.1321635
-0.3033376 0.16239285 1.1321635
-0.30129492 0.16239285 1.1321635
-0.29925224 0.16239285 1.1321635
-0.29720956 0.16239285 1.1321635
-0.29516688 0.16239285 1.1321635
-0.2931242 0.16239285 1.1321635
-0.29108152 0.16239285 1.1321635
-0.28903884 0.16239285 1.1321635
-0.28699619 0.16239285 1.1321635
-0.2849535 0.16239285 1.1321635
-0.28291082 0.16239285 1.1321635
-0.28086814 0.16239285 1.1321635
-0.27882546 0.16239285 1.1321635
-0.27678278 0.16239285 1.1321635
-0.2747401 0.16239285 1.1321635
-0.27269742 0.16239285 1.1321635
-0.27065477 0.16239285 1.1321635
-0.26861209 0.16239285 1.1321635
-0.26656941 0.16239285 1.1321635
-0.26452672 0.16239285 1.1321635
-0.26248404 0.16239285 1.1321635
-0.26044136 0.16239285 1.1321635
-0.25839868 0.16239285 1.1321635
-0.256356 0.16239285 1.1321635
-0.25431332 0.16239285 1.1321635
-0.25227067 0.16239285 1.1321635
-0.25022799 0.16239285 1.1321635
-0.24818531 0.16239285 1.1321635
-0.24841584 0.16389261 1.1426195
-0.2486583 0.16542539 1.1533056
-0.2489053 0.16698711 1.1641935
-0.24915703 0.16857858 1.1752889
-0.2494126 0.17020002 1.1865932
-0.55050081 0.1644353 1.132162
-0.5484581 0.1644353 1.132162
-0.54641545 0.1644353 1.132162
-0.5443728 0.1644353 1.132162
-0.54233009 0.1644353 1.132162
-0.54028744 0.1644353 1.132162
-0.53824478 0.1644353 1.132162
-0.53620207 0.1644353 1.132162
-0.53415942 0.1644353 1.132162
-0.53211671 0.1644353 1.132162
-0.53007406 0.1644353 1.132162
-0.52803141 0.1644353 1.132162
-0.5259887 0.1644353 1.132162
-0.52394605 0.1644353 1.132162
-0.52190334 0.1644353 1.132162
-0.51986068 0.1644353 1.132162
-0.51781803 0.1644353 1.132162
-0.51577532 0.1644353 1.132162
-0.51373267 0.1644353 1.132162
-0.51168996 0.1644353 1.132162
-0.50964731 0.1644353 1.132162
-0.50760466 0.1644353 1.132162
-0.50556195 0.1644353 1.132162
-0.5035193 0.1644353 1.132162
-0.50147659 0.16443528 1.1321619
-0.49943388 0.16443528 1.1321619
-0.49739122 0.16443528 1.1321619
-0.49534854 0.16443528 1.1321619
-0.49330586 0.16443528 1.1321619
-0.49126318 0.16443528 1.1321619
-0.4892205 0.16443528 1.1321619
-0.48717785 0.16443528 1.1321619
-0.48513517 0.16443528 1.1321619
-0.48309249 0.16443528 1.1321619
-0.48104981 0.16443528 1.1321619
-0.47900715 0.16443528 1.1321619
-0.47696447 0.16443528 1.1321619
-0.47492179 0.16443528 1.1321619
-0.47287911 0.16443528 1.1321619
-0.47083643 0.16443528 1.1321619
-0.46879378 0.16443528 1.1321619
-0.46163717 0.16263367 1.1197574
-0.45961687 0.16263367 1.1197574
-0.45759663 0.16263369 1.1197575
-0.45557633 0.16263369 1.1197575
-0.45355606 0.16263369 1.1197575
-0.45153576 0.16263369 1.1197575
-0.44951546 0.16263369 1.1197575
-0.44749516 0.16263369 1.1197575
-0.44564369 0.16269532 1.1201819
-0.44532675 0.16332029 1.1244849
-0.44495645 0.16393133 1.128692
-0.44440845 0.16448221 1.1324849
-0.44385675 0.16503681 1.1363034
-0.44330129 0.16559514 1.1401477
-0.44274208 0.16615728 1.1440181
-0.44217902 0.16672324 1.1479148
-0.44161215 0.16729307 1.1518382
-0.44104138 0.16786681 1.1557884
-0.44046664 0.1684445 1.1597658
-0.439888 0.16902617 1.1637708
-0.43930534 0.16961189 1.1678035
-0.43871859 0.17020167 1.1718643
-0.43812779 0.17079557 1.1759534
-0.43753281 0.17139363 1.1800711
-0.43693364 0.17199588 1.1842177
-0.43633026 0.17260239 1.1883936
-0.35254133 0.16263369 1.1197575
-0.35052103 0.16263369 1.1197575
-0.3485007 0.16263367 1.1197574
-0.34648043 0.16263367 1.1197574
-0.34446013 0.16263367 1.1197574
-0.34243983 0.16263367 1.1197574
-0.34041953 0.16263367 1.1197574
-0.33839923 0.16263367 1.1197574
-0.33863595 0.1637249 1.1272707
-0.33806261 0.16443528 1.1321619
-0.33601993 0.16443528 1.1321619
-0.33397725 0.16443528 1.1321619
-0.33193457 0.16443528 1.1321619
-0.32989192 0.16443528 1.1321619
-0.32784924 0.16443528 1.1321619
-0.32580656 0.16443528 1.1321619
-0.32376388 0.16443528 1.1321619
-0.32172123 0.16443528 1.1321619
-0.31967854 0.16443528 1.1321619
-0.31763586 0.16443528 1.1321619
-0.31559318 0.16443528 1.1321619
-0.3135505 0.16443528 1.1321619
-0.31150785 0.16443528 1.1321619
-0.30946517 0.16443528 1.1321619
-0.30742249 0.16443528 1.1321619
-0.30537981 0.16443528 1.1321619
-0.30333716 0.16443528 1.1321619
-0.30129448 0.16443528 1.1321619
-0.29925179 0.16443528 1.1321619
-0.29720911 0.16443528 1.1321619
-0.29516643 0.16443528 1.1321619
-0.29312378 0.16443528 1.1321619
-0.2910811 0.16443528 1.1321619
-0.28903842 0.16443528 1.1321619
-0.28699574 0.16443528 1.1321619
-0.28495309 0.16443528 1.1321619
-0.28291041 0.16443528 1.1321619
-0.28086773 0.16443528 1.1321619
-0.27882504 0.16443528 1.1321619
-0.27678236 0.16443528 1.1321619
-0.27473971 0.16443528 1.1321619
-0.27269703 0.16443528 1.1321619
-0.27065435 0.16443528 1.1321619
-0.26861167 0.16443528 1.1321619
-0.26656902 0.16443528 1.1321619
-0.26452634 0.16443528 1.1321619
-0.26248366 0.16443528 1.1321619
-0.26044098 0.16443528 1.1321619
-0.25839829 0.16443528 1.1321619
-0.25635564 0.16443528 1.1321619
-0.25431296 0.16443528 1.1321619
-0.25227028 0.16443528 1.1321619
-0.2502276 0.16443528 1.1321619
-0.248539 0.16466987 1.133777
-0.24878068 0.16619788 1.1442976
-0.24902691 0.16775453 1.1550153
-0.24927777 0.1693406 1.1659356
-0.24953341 0.17095694 1.1770644
-0.24979317 0.17260386 1.1884037
-0.55049998 0.16647774 1.1321603
-0.54845732 0.16647774 1.1321603
-0.54641467 0.16647774 1.1321603
-0.54437196 0.16647774 1.1321603
-0.54232931 0.16647774 1.1321603
-0.54028666 0.16647774 1.1321603
-0.53824395 0.16647774 1.1321603
-0.5362013 0.16647774 1.1321603
-0.53415865 0.16647774 1.1321603
-0.53211594 0.16647774 1.1321603
-0.53007329 0.16647774 1.1321603
-0.52803057 0.16647774 1.1321603
-0.52598792 0.16647774 1.1321603
-0.52394527 0.16647774 1.1321603
-0.52190256 0.16647774 1.1321603
-0.51985991 0.16647774 1.1321603
-0.51781726 0.16647774 1.1321603
-0.51577455 0.16647774 1.1321603
-0.5137319 0.16647774 1.1321603
-0.51168925 0.16647774 1.1321603
-0.50964653 0.16647774 1.1321603
-0.50760388 0.16647774 1.1321603
-0.50556123 0.16647774 1.1321603
-0.50351852 0.16647774 1.1321603
-0.50147587 0.16647774 1.1321603
-0.49943319 0.16647774 1.1321603
-0.49739054 0.16647774 1.1321603
-0.49534786 0.16647774 1.1321603
-0.49330518 0.16647774 1.1321603
-0.49126253 0.16647774 1.1321603
-0.48921984 0.16647774 1.1321603
-0.48717716 0.16647774 1.1321603
-0.48513451 0.16647774 1.1321603
-0.48309183 0.16647774 1.1321603
-0.48104915 0.16647774 1.1321603
-0.4790065 0.16647774 1.1321603
-0.47696382 0.16647774 1.1321603
-0.47492114 0.16647774 1.1321603
-0.47287846 0.16647774 1.1321603
-0.4708358 0.16647774 1.1321603
-0.46879312 0.16647774 1.1321603
-0.46675044 0.16647774 1.1321603
-0.45961624 0.16465373 1.1197559
-0.45759594 0.16465373 1.1197559
-0.45557567 0.16465373 1.1197559
-0.45355538 0.16465373 1.1197559
-0.45153508 0.16465373 1.1197559
-0.44951478 0.16465373 1.1197559
-0.44749451 0.16465373 1.1197559
-0.44547421 0.16465373 1.1197559
-0.44401872 0.16486345 1.1211821
-0.44347128 0.16541377 1.1249247
-0.44292018 0.16596779 1.1286924
-0.44236538 0.16652554 1.1324854
-0.44180679 0.16708703 1.1363039
-0.44124448 0.16765234 1.1401484
-0.44067833 0.16822147 1.1440189
-0.44010836 0.1687945 1.1479158
-0.4395344 0.16937141 1.1518393
-0.43895647 0.16995227 1.1557895
-0.43837464 0.17053714 1.159767
-0.43778872 0.17112605 1.163772
-0.43719873 0.17171903 1.1678046
-0.43660468 0.17231613 1.1718653
-0.43600649 0.17291741 1.1759545
-0.43540409 0.1735229 1.1800722
-0.43479747 0.17413265 1.1842189
-0.43418658 0.17474669 1.1883948
-0.35456109 0.16465373 1.1197559
-0.35254082 0.16465373 1.1197559
-0.35052052 0.16465373 1.1197559
-0.34850022 0.16465373 1.1197559
-0.34647992 0.16465373 1.1197559
-0.34445965 0.16465373 1.1197559
-0.34243935 0.16465373 1.1197559
-0.34041905 0.16465373 1.1197559
-0.33934599 0.16511463 1.1228902
-0.34001887 0.16643566 1.1318742
-0.33806214 0.16647774 1.1321603
-0.33601949 0.16647774 1.1321603
-0.33397681 0.16647774 1.1321603
-0.33193412 0.16647774 1.1321603
-0.32989147 0.16647774 1.1321603
-0.32784879 0.16647774 1.1321603
-0.32580611 0.16647774 1.1321603
-0.32376346 0.16647774 1.1321603
-0.32172078 0.16647774 1.1321603
-0.3196781 0.16647774 1.1321603
-0.31763542 0.16647774 1.1321603
-0.31559277 0.16647774 1.1321603
-0.31355008 0.16647774 1.1321603
-0.3115074 0.16647774 1.1321603
-0.30946475 0.16647774 1.1321603
-0.30742207 0.16647774 1.1321603
-0.30537939 0.16647774 1.1321603
-0.30333674 0.16647774 1.1321603
-0.30129406 0.16647774 1.1321603
-0.29925138 0.16647774 1.1321603
-0.29720873 0.16647774 1.1321603
-0.29516605 0.16647774 1.1321603
-0.29312336 0.16647774 1.1321603
-0.29108071 0.16647774 1.1321603
-0.28903803 0.16647774 1.1321603
-0.28699535 0.16647774 1.1321603
-0.2849527 0.16647774 1.1321603
-0.28291002 0.16647774 1.1321603
-0.28086734 0.16647774 1.1321603
-0.27882466 0.16647774 1.1321603
-0.27678201 0.16647774 1.1321603
-0.27473933 0.16647774 1.1321603
-0.27269664 0.16647774 1.1321603
-0.27065399 0.16647774 1.1321603
-0.26861131 0.16647774 1.1321603
-0.26656863 0.16647774 1.1321603
-0.26452598 0.16647774 1.1321603
-0.2624833 0.16647774 1.1321603
-0.26044062 0.16647774 1.1321603
-0.25839797 0.16647774 1.1321603
-0.25635529 0.16647774 1.1321603
-0.2543126 0.16647774 1.1321603
-0.25226995 0.16647774 1.1321603
-0.25022727 0.16647774 1.1321603
-0.2489012 0.16695842 1.1354293
-0.24914661 0.16850995 1.1459807
-0.24939661 0.17009057 1.1567301
-0.24965136 0.17170115 1.167683
-0.24991098 0.17334251 1.1788454
-0.5504992 0.16852015 1.1321586
-0.54845649 0.16852015 1.1321586
-0.54641384 0.16852015 1.1321586
-0.54437119 0.16852015 1.1321586
-0.54232848 0.16852015 1.1321586
-0.54028583 0.16852015 1.1321586
-0.53824317 0.16852015 1.1321586
-0.53620052 0.16852015 1.1321586
-0.53415781 0.16852015 1.1321586
-0.53211516 0.16852015 1.1321586
-0.53007251 0.16852015 1.1321586
-0.5280298 0.16852015 1.1321586
-0.52598715 0.16852015 1.1321586
-0.5239445 0.16852015 1.1321586
-0.52190185 0.16852015 1.1321586
-0.51985914 0.16852015 1.1321586
-0.51781648 0.16852015 1.1321586
-0.51577383 0.16852015 1.1321586
-0.51373112 0.16852015 1.1321586
-0.51168847 0.16852015 1.1321586
-0.50964582 0.16852015 1.1321586
-0.50760317 0.16852015 1.1321586
-0.50556046 0.16852015 1.1321586
-0.50351781 0.16852015 1.1321586
-0.50147516 0.16852015 1.1321586
-0.49943247 0.16852015 1.1321586
-0.49738979 0.16852015 1.1321586
-0.49534714 0.16852015 1.1321586
-0.49330446 0.16852015 1.1321586
-0.49126178 0.16852015 1.1321586
-0.48921913 0.16852015 1.1321586
-0.48717645 0.16852015 1.1321586
-0.4851338 0.16852015 1.1321586
-0.48309112 0.16852015 1.1321586
-0.48104843 0.16852015 1.1321586
-0.47900578 0.16852015 1.1321586
-0.4769631 0.16852015 1.1321586
-0.47492045 0.16852015 1.1321586
-0.47287777 0.16852015 1.1321586
-0.47083512 0.16852015 1.1321586
-0.46879244 0.16852015 1.1321586
-0.46674976 0.16852015 1.1321586
-0.45961556 0.16667378 1.1197542
-0.45759526 0.16667378 1.1197542
-0.45557502 0.16667379 1.1197543
-0.45355475 0.16667379 1.1197543
-0.45153445 0.16667379 1.1197543
-0.44951415 0.16667379 1.1197543
-0.44749388 0.16667379 1.1197543
-0.44547358 0.16667379 1.1197543
-0.44345331 0.16667379 1.1197543
-0.4419952 0.16688606 1.1211804
-0.441441 0.16744314 1.124923
-0.44088313 0.16800396 1.1286907
-0.44032148 0.16856855 1.1324837
-0.43975601 0.16913693 1.1363022
-0.43918678 0.16970918 1.1401467
-0.43861362 0.17028528 1.1440172
-0.43803656 0.17086533 1.1479141
-0.43745559 0.17144933 1.1518376
-0.43687063 0.17203736 1.1557881
-0.43628165 0.17262943 1.1597657
-0.43568859 0.17322558 1.1637708
-0.43509141 0.17382586 1.1678036
-0.43449005 0.17443031 1.1718645
-0.43388453 0.17503899 1.1759537
-0.43327481 0.17565195 1.1800717
-0.4326112 0.176249 1.1840829
-0.43166226 0.17673518 1.1873491
-0.35658091 0.16667379 1.1197543
-0.35456061 0.16667379 1.1197543
-0.35254031 0.16667379 1.1197543
-0.35052004 0.16667379 1.1197543
-0.34849975 0.16667379 1.1197543
-0.34647942 0.16667378 1.1197542
-0.34445915 0.16667378 1.1197542
-0.34243885 0.16667378 1.1197542
-0.34041855 0.16667378 1.1197542
-0.34072411 0.16781934 1.1274503
-0.34010431 0.16852015 1.1321586
-0.33806166 0.16852015 1.1321586
-0.33601898 0.16852015 1.1321586
-0.3339763 0.16852015 1.1321586
-0.33193365 0.16852015 1.1321586
-0.32989097 0.16852015 1.1321586
-0.32784832 0.16852015 1.1321586
-0.32580563 0.16852015 1.1321586
-0.32376298 0.16852015 1.1321586
-0.3217203 0.16852015 1.1321586
-0.31967762 0.16852015 1.1321586
-0.31763497 0.16852015 1.1321586
-0.31559229 0.16852015 1.1321586
-0.31354964 0.16852015 1.1321586
-0.31150696 0.16852015 1.1321586
-0.30946428 0.16852015 1.1321586
-0.30742162 0.16852015 1.1321586
-0.30537894 0.16852015 1.1321586
-0.30333629 0.16852015 1.1321586
-0.30129361 0.16852015 1.1321586
-0.29925093 0.16852015 1.1321586
-0.29720828 0.16852015 1.1321586
-0.2951656 0.16852015 1.1321586
-0.29312295 0.16852015 1.1321586
-0.29108027 0.16852015 1.1321586
-0.28903762 0.16852015 1.1321586
-0.28699493 0.16852015 1.1321586
-0.28495225 0.16852015 1.1321586
-0.2829096 0.16852015 1.1321586
-0.28086692 0.16852015 1.1321586
-0.27882427 0.16852015 1.1321586
-0.27678159 0.16852015 1.1321586
-0.27473891 0.16852015 1.1321586
-0.27269626 0.16852015 1.1321586
-0.27065358 0.16852015 1.1321586
-0.26861092 0.16852015 1.1321586
-0.26656824 0.16852015 1.1321586
-0.26452559 0.16852015 1.1321586
-0.26248291 0.16852015 1.1321586
-0.26044023 0.16852015 1.1321586
-0.25839758 0.16852015 1.1321586
-0.2563549 0.16852015 1.1321586
-0.25431225 0.16852015 1.1321586
-0.25226957 0.16852015 1.1321586
-0.25022689 0.16852015 1.1321586
-0.24926446 0.16925365 1.1370864
-0.2495136 0.1708288 1.1476687
-0.24976744 0.17243358 1.15845
-0.25002608 0.17406878 1.1694356
-0.25028968 0.17573531 1.1806318
-0.55049843 0.1705626 1.1321571
-0.54845577 0.1705626 1.1321571
-0.54641312 0.1705626 1.1321571
-0.54437041 0.1705626 1.1321571
-0.54232776 0.1705626 1.1321571
-0.54028511 0.1705626 1.1321571
-0.53824246 0.1705626 1.1321571
-0.53619975 0.1705626 1.1321571
-0.5341571 0.1705626 1.1321571
-0.53211445 0.1705626 1.1321571
-0.53007179 0.1705626 1.1321571
-0.52802908 0.1705626 1.1321571
-0.52598643 0.1705626 1.1321571
-0.52394378 0.1705626 1.1321571
-0.52190113 0.1705626 1.1321571
-0.51985842 0.1705626 1.1321571
-0.51781577 0.1705626 1.1321571
-0.51577312 0.1705626 1.1321571
-0.51373047 0.1705626 1.1321571
-0.51168776 0.1705626 1.1321571
-0.5096451 0.1705626 1.1321571
-0.50760245 0.1705626 1.1321571
-0.5055598 0.1705626 1.1321571
-0.50351709 0.1705626 1.1321571
-0.50147444 0.1705626 1.1321571
-0.49943179 0.1705626 1.1321571
-0.49738911 0.1705626 1.1321571
-0.49534646 0.1705626 1.1321571
-0.49330378 0.1705626 1.1321571
-0.49126112 0.1705626 1.1321571
-0.48921844 0.1705626 1.1321571
-0.48717579 0.1705626 1.1321571
-0.48513311 0.1705626 1.1321571
-0.48309046 0.1705626 1.1321571
-0.48104775 0.17056258 1.132157
-0.47900507 0.17056258 1.132157
-0.47696242 0.17056258 1.132157
-0.47491974 0.17056258 1.132157
-0.47287709 0.17056258 1.132157
-0.4708344 0.17056258 1.132157
-0.46879175 0.17056258 1.132157
-0.46674907 0.17056258 1.132157
-0.46470642 0.17056258 1.132157
-0.45759463 0.16869383 1.1197526
-0.45557436 0.16869383 1.1197526
-0.45355406 0.16869383 1.1197526
-0.45153379 0.16869383 1.1197526
-0.44951349 0.16869383 1.1197526
-0.4474932 0.16869383 1.1197526
-0.44547293 0.16869383 1.1197526
-0.44345263 0.16869383 1.1197526
-0.44143236 0.16869383 1.1197526
-0.43997169 0.16890867 1.1211787
-0.43941075 0.1694725 1.1249213
-0.43884605 0.17004012 1.1286891
-0.43827757 0.17061155 1.1324821
-0.43770522 0.17118682 1.1363006
-0.43712899 0.17176598 1.1401449
-0.43654892 0.1723491 1.1440156
-0.43596485 0.17293617 1.1479124
-0.43537679 0.17352726 1.1518359
-0.43478465 0.17412239 1.1557863
-0.43418851 0.17472164 1.1597639
-0.43358821 0.17532502 1.163769
-0.43298376 0.17593257 1.1678019
-0.43217322 0.17646192 1.1713156
-0.43123335 0.17694341 1.1745116
-0.43028837 0.17742756 1.1777252
-0.42933819 0.17791434 1.1809564
-0.42838281 0.17840381 1.1842054
-0.42742217 0.178896 1.1874723
-0.35860065 0.16869383 1.1197526
-0.35658038 0.16869383 1.1197526
-0.35456008 0.16869383 1.1197526
-0.35253981 0.16869383 1.1197526
-0.35051951 0.16869383 1.1197526
-0.34849924 0.16869383 1.1197526
-0.34647894 0.16869383 1.1197526
-0.34445867 0.16869383 1.1197526
-0.34243837 0.16869383 1.1197526
-0.34142387 0.16919225 1.1230611
-0.34211579 0.17054728 1.1320554
-0.34010381 0.17056258 1.132157
-0.33806115 0.17056258 1.132157
-0.33601847 0.17056258 1.132157
-0.33397582 0.17056258 1.132157
-0.33193314 0.17056258 1.132157
-0.32989049 0.17056258 1.132157
-0.32784781 0.17056258 1.132157
-0.32580516 0.17056258 1.132157
-0.32376248 0.17056258 1.132157
-0.32171983 0.17056258 1.132157
-0.31967717 0.17056258 1.132157
-0.31763449 0.17056258 1.132157
-0.31559187 0.1705626 1.1321571
-0.31354919 0.1705626 1.1321571
-0.31150654 0.1705626 1.1321571
-0.30946386 0.1705626 1.1321571
-0.30742121 0.1705626 1.1321571
-0.30537853 0.1705626 1.1321571
-0.30333588 0.1705626 1.1321571
-0.30129319 0.1705626 1.1321571
-0.29925054 0.1705626 1.1321571
-0.29720786 0.1705626 1.1321571
-0.29516521 0.1705626 1.1321571
-0.29312253 0.1705626 1.1321571
-0.29107988 0.1705626 1.1321571
-0.2890372 0.1705626 1.1321571
-0.28699455 0.1705626 1.1321571
-0.28495187 0.1705626 1.1321571
-0.28290921 0.1705626 1.1321571
-0.28086653 0.1705626 1.1321571
-0.27882388 0.1705626 1.1321571
-0.2767812 0.1705626 1.1321571
-0.27473855 0.1705626 1.1321571
-0.27269587 0.1705626 1.1321571
-0.27065322 0.1705626 1.1321571
-0.26861054 0.1705626 1.1321571
-0.26656789 0.1705626 1.1321571
-0.2645252 0.1705626 1.1321571
-0.26248255 0.1705626 1.1321571
-0.26043987 0.1705626 1.1321571
-0.25839722 0.1705626 1.1321571
-0.25635454 0.1705626 1.1321571
-0.25431189 0.1705626 1.1321571
-0.25226921 0.1705626 1.1321571
-0.25022656 0.1705626 1.1321571
-0.24962877 0.17155558 1.1387483
-0.24988167 0.17315452 1.1493617
-0.25013936 0.17478356 1.160175
-0.25040191 0.17644355 1.1711936
-0.25066951 0.17813537 1.1824235
-0.54845494 0.17260501 1.1321554
-0.54641229 0.17260501 1.1321554
-0.54436964 0.17260501 1.1321554
-0.54232699 0.17260501 1.1321554
-0.54028428 0.17260501 1.1321554
-0.53824162 0.17260501 1.1321554
-0.53619897 0.17260501 1.1321554
-0.53415632 0.17260501 1.1321554
-0.53211367 0.17260501 1.1321554
-0.53007096 0.17260501 1.1321554
-0.52802831 0.17260501 1.1321554
-0.52598566 0.17260501 1.1321554
-0.52394301 0.17260501 1.1321554
-0.52190036 0.17260501 1.1321554
-0.51985765 0.17260501 1.1321554
-0.51781499 0.17260501 1.1321554
-0.51577234 0.17260501 1.1321554
-0.51372969 0.17260501 1.1321554
-0.51168704 0.17260501 1.1321554
-0.50964433 0.17260501 1.1321554
-0.50760168 0.17260501 1.1321554
-0.50555903 0.17260501 1.1321554
-0.50351638 0.17260501 1.1321554
-0.50147372 0.17260501 1.1321554
-0.49943104 0.17260501 1.1321554
-0.49738839 0.17260501 1.1321554
-0.49534571 0.17260501 1.1321554
-0.49330306 0.17260501 1.1321554
-0.49126038 0.17260501 1.1321554
-0.48921773 0.17260501 1.1321554
-0.48717508 0.17260501 1.1321554
-0.4851324 0.17260501 1.1321554
-0.48308975 0.17260501 1.1321554
-0.48104709 0.17260501 1.1321554
-0.47900441 0.17260501 1.1321554
-0.47696176 0.17260501 1.1321554
-0.47491908 0.17260501 1.1321554
-0.47287643 0.17260501 1.1321554
-0.47083378 0.17260501 1.1321554
-0.4687911 0.17260501 1.1321554
-0.46674845 0.17260501 1.1321554
-0.46470577 0.17260501 1.1321554
-0.45759395 0.17071386 1.119751
-0.45557368 0.17071386 1.119751
-0.45355338 0.17071386 1.119751
-0.45153317 0.17071387 1.1197511
-0.44951287 0.17071387 1.1197511
-0.4474926 0.17071387 1.1197511
-0.4454723 0.17071387 1.1197511
-0.44345203 0.17071387 1.1197511
-0.44143173 0.17071387 1.1197511
-0.43941146 0.17071387 1.1197511
-0.43794823 0.17093129 1.1211772
-0.43738052 0.17150187 1.1249198
-0.436809 0.17207627 1.1286874
-0.43623367 0.17265454 1.1324804
-0.43565443 0.1732367 1.1362989
-0.43507129 0.17382281 1.1401433
-0.43448418 0.17441289 1.1440138
-0.43389311 0.17500702 1.1479107
-0.43329793 0.17560516 1.1518341
-0.43267047 0.17619593 1.1557091
-0.43174455 0.17667028 1.1588205
-0.43081358 0.17714719 1.1619487
-0.42987761 0.17762668 1.1650938
-0.42893657 0.1781088 1.168256
-0.42799035 0.1785935 1.1714354
-0.42703903 0.17908089 1.1746322
-0.42608246 0.17957091 1.1778464
-0.42512068 0.18006364 1.1810783
-0.42415357 0.18055907 1.184328
-0.42318115 0.18105724 1.1875956
-0.36062044 0.17071387 1.1197511
-0.35860017 0.17071387 1.1197511
-0.35657987 0.17071387 1.1197511
-0.3545596 0.17071387 1.1197511
-0.3525393 0.17071387 1.1197511
-0.35051903 0.17071387 1.1197511
-0.34849873 0.17071387 1.1197511
-0.34647843 0.17071386 1.119751
-0.34445813 0.17071386 1.119751
-0.34243786 0.17071386 1.119751
-0.34281293 0.17191508 1.1276301
-0.34214601 0.17260501 1.1321554
-0.34010336 0.17260501 1.1321554
-0.33806068 0.17260501 1.1321554
-0.33601803 0.17260501 1.1321554
-0.33397537 0.17260501 1.1321554
-0.33193269 0.17260501 1.1321554
-0.32989004 0.17260501 1.1321554
-0.32784736 0.17260501 1.1321554
-0.32580471 0.17260501 1.1321554
-0.32376206 0.17260501 1.1321554
-0.32171938 0.17260501 1.1321554
-0.31967673 0.17260501 1.1321554
-0.31763405 0.17260501 1.1321554
-0.31559139 0.17260501 1.1321554
-0.31354874 0.17260501 1.1321554
-0.31150606 0.17260501 1.1321554
-0.30946341 0.17260501 1.1321554
-0.30742076 0.17260501 1.1321554
-0.30537808 0.17260501 1.1321554
-0.30333543 0.17260501 1.1321554
-0.30129275 0.17260501 1.1321554
-0.2992501 0.17260501 1.1321554
-0.29720744 0.17260501 1.1321554
-0.29516476 0.17260501 1.1321554
-0.29312211 0.17260501 1.1321554
-0.29107943 0.17260501 1.1321554
-0.28903678 0.17260501 1.1321554
-0.28699413 0.17260501 1.1321554
-0.28495145 0.17260501 1.1321554
-0.2829088 0.17260501 1.1321554
-0.28086612 0.17260501 1.1321554
-0.27882347 0.17260501 1.1321554
-0.27678081 0.17260501 1.1321554
-0.27473813 0.17260501 1.1321554
-0.27269548 0.17260501 1.1321554
-0.27065283 0.17260501 1.1321554
-0.26861015 0.17260501 1.1321554
-0.2665675 0.17260501 1.1321554
-0.26452482 0.17260501 1.1321554
-0.26248217 0.17260501 1.1321554
-0.26043952 0.17260501 1.1321554
-0.25839683 0.17260501 1.1321554
-0.25635418 0.17260501 1.1321554
-0.2543115 0.17260501 1.1321554
-0.25226885 0.17260501 1.1321554
-0.2502262 0.17260501 1.1321554
-0.24999416 0.17386425 1.1404151
-0.25025085 0.1754871 1.1510597
-0.25051239 0.17714056 1.1619052
-0.25077888 0.17882544 1.1729567
-0.2516008 0.18093844 1.1868163
-0.54845417 0.17464741 1.1321537
-0.54641145 0.17464741 1.1321537
-0.5443688 0.17464741 1.1321537
-0.54232615 0.17464741 1.1321537
-0.5402835 0.17464741 1.1321537
-0.53824085 0.17464741 1.1321537
-0.5361982 0.17464741 1.1321537
-0.53415555 0.17464741 1.1321537
-0.53211284 0.17464741 1.1321537
-0.53007019 0.17464741 1.1321537
-0.52802753 0.17464741 1.1321537
-0.52598488 0.17464741 1.1321537
-0.52394223 0.17464741 1.1321537
-0.52189958 0.17464741 1.1321537
-0.51985693 0.17464741 1.1321537
-0.51781422 0.17464741 1.1321537
-0.51577157 0.17464741 1.1321537
-0.51372892 0.17464741 1.1321537
-0.51168627 0.17464741 1.1321537
-0.50964361 0.17464741 1.1321537
-0.50760096 0.17464741 1.1321537
-0.50555831 0.17464741 1.1321537
-0.5035156 0.17464741 1.1321537
-0.50147295 0.17464741 1.1321537
-0.4994303 0.17464741 1.1321537
-0.49738765 0.17464741 1.1321537
-0.495345 0.17464741 1.1321537
-0.49330232 0.17464741 1.1321537
-0.49125966 0.17464741 1.1321537
-0.48921701 0.17464741 1.1321537
-0.48717436 0.17464741 1.1321537
-0.48513168 0.17464741 1.1321537
-0.48308903 0.17464741 1.1321537
-0.48104638 0.17464741 1.1321537
-0.4790037 0.17464741 1.1321537
-0.47696105 0.17464741 1.1321537
-0.4749184 0.17464741 1.1321537
-0.47287574 0.17464741 1.1321537
-0.47083306 0.17464741 1.1321537
-0.46879041 0.17464741 1.1321537
-0.46674776 0.17464741 1.1321537
-0.46470508 0.17464741 1.1321537
-0.46266243 0.17464741 1.1321537
-0.45557305 0.1727339 1.1197494
-0.45355275 0.1727339 1.1197494
-0.45153248 0.1727339 1.1197494
-0.44951221 0.1727339 1.1197494
-0.44749191 0.1727339 1.1197494
-0.44547164 0.1727339 1.1197494
-0.44345137 0.1727339 1.1197494
-0.44143108 0.1727339 1.1197494
-0.43941081 0.1727339 1.1197494
-0.43739054 0.1727339 1.1197494
-0.43592474 0.17295389 1.1211755
-0.43535027 0.17353123 1.1249181
-0.43477196 0.17411242 1.1286857
-0.4341898 0.17469753 1.1324787
-0.43360367 0.17528659 1.1362972
-0.43301359 0.17587963 1.1401416
-0.43224227 0.17640437 1.1435432
-0.43132496 0.17687427 1.1465894
-0.43040276 0.17734668 1.1496518
-0.42947561 0.17782162 1.1527306
-0.42854345 0.1782991 1.1558259
-0.42760631 0.17877917 1.1589379
-0.42666408 0.17926182 1.1620667
-0.42571679 0.17974709 1.1652125
-0.42476431 0.18023498 1.1683753
-0.42380667 0.18072553 1.1715553
-0.42284381 0.18121877 1.1747527
-0.42187569 0.18171471 1.1779677
-0.42090222 0.18221337 1.1812001
-0.41992342 0.18271478 1.1844505
-0.41893923 0.18321896 1.1877189
-0.36264017 0.1727339 1.1197494
-0.3606199 0.1727339 1.1197494
-0.35859963 0.1727339 1.1197494
-0.35657933 0.1727339 1.1197494
-0.35455906 0.1727339 1.1197494
-0.35253879 0.1727339 1.1197494
-0.35051849 0.1727339 1.1197494
-0.34849823 0.1727339 1.1197494
-0.34647796 0.1727339 1.1197494
-0.34445766 0.1727339 1.1197494
-0.34434766 0.17369749 1.1259959
-0.34418815 0.17464741 1.1321537
-0.3421455 0.17464741 1.1321537
-0.34010285 0.17464741 1.1321537
-0.3380602 0.17464741 1.1321537
-0.33601752 0.17464741 1.1321537
-0.33397487 0.17464741 1.1321537
-0.33193222 0.17464741 1.1321537
-0.32988954 0.17464741 1.1321537
-0.32784688 0.17464741 1.1321537
-0.32580423 0.17464741 1.1321537
-0.32376158 0.17464741 1.1321537
-0.3217189 0.17464741 1.1321537
-0.31967625 0.17464741 1.1321537
-0.3176336 0.17464741 1.1321537
-0.31559092 0.17464741 1.1321537
-0.31354827 0.17464741 1.1321537
-0.31150562 0.17464741 1.1321537
-0.30946296 0.17464741 1.1321537
-0.30742028 0.17464741 1.1321537
-0.30537763 0.17464741 1.1321537
-0.30333498 0.17464741 1.1321537
-0.3012923 0.17464741 1.1321537
-0.29924965 0.17464741 1.1321537
-0.297207 0.17464741 1.1321537
-0.29516435 0.17464741 1.1321537
-0.29312167 0.17464741 1.1321537
-0.29107901 0.17464741 1.1321537
-0.28903636 0.17464741 1.1321537
-0.28699368 0.17464741 1.1321537
-0.28495103 0.17464741 1.1321537
-0.28290838 0.17464741 1.1321537
-0.28086573 0.17464741 1.1321537
-0.27882305 0.17464741 1.1321537
-0.2767804 0.17464741 1.1321537
-0.27473775 0.17464741 1.1321537
-0.27269506 0.17464741 1.1321537
-0.27065241 0.17464741 1.1321537
-0.26860976 0.17464741 1.1321537
-0.26656711 0.17464741 1.1321537
-0.26452443 0.17464741 1.1321537
-0.26248178 0.17464741 1.1321537
-0.26043913 0.17464741 1.1321537
-0.25839645 0.17464741 1.1321537
-0.2563538 0.17464741 1.1321537
-0.25431114 0.17464741 1.1321537
-0.25226849 0.17464741 1.1321537
-0.25022581 0.17464741 1.1321537
-0.25036061 0.17617968 1.1420867
-0.25062111 0.1778266 1.1527629
-0.2508865 0.17950457 1.1636404
-0.25208482 0.18188399 1.179065
-0.54845339 0.17668983 1.1321522
-0.54641074 0.17668983 1.1321522
-0.54436809 0.17668983 1.1321522
-0.54232544 0.17668983 1.1321522
-0.54028279 0.17668983 1.1321522
-0.53824013 0.17668983 1.1321522
-0.53619742 0.17668983 1.1321522
-0.53415477 0.17668983 1.1321522
-0.53211212 0.17668983 1.1321522
-0.53006947 0.17668983 1.1321522
-0.52802682 0.17668983 1.1321522
-0.52598417 0.17668983 1.1321522
-0.52394152 0.17668983 1.1321522
-0.52189887 0.17668983 1.1321522
-0.51985621 0.17668983 1.1321522
-0.51781356 0.17668983 1.1321522
-0.51577085 0.17668983 1.1321522
-0.5137282 0.17668983 1.1321522
-0.51168555 0.17668983 1.1321522
-0.5096429 0.17668983 1.1321522
-0.50760025 0.17668983 1.1321522
-0.5055576 0.17668983 1.1321522
-0.50351495 0.17668983 1.1321522
-0.50147229 0.17668983 1.1321522
-0.49942961 0.17668983 1.1321522
-0.49738696 0.17668983 1.1321522
-0.49534431 0.17668983 1.1321522
-0.49330166 0.17668983 1.1321522
-0.49125901 0.17668983 1.1321522
-0.48921633 0.17668983 1.1321522
-0.48717368 0.17668983 1.1321522
-0.48513103 0.17668983 1.1321522
-0.48308837 0.17668983 1.1321522
-0.48104572 0.17668983 1.1321522
-0.47900304 0.17668983 1.1321522
-0.47696039 0.17668983 1.1321522
-0.47491774 0.17668983 1.1321522
-0.47287509 0.17668983 1.1321522
-0.47083244 0.17668983 1.1321522
-0.46878976 0.17668983 1.1321522
-0.46674711 0.17668983 1.1321522
-0.46470445 0.17668983 1.1321522
-0.4626618 0.17668983 1.1321522
-0.46061915 0.17668983 1.1321522
-0.4535521 0.17475392 1.1197478
-0.4515318 0.17475392 1.1197478
-0.44951159 0.17475393 1.1197479
-0.44749132 0.17475393 1.1197479
-0.44547102 0.17475393 1.1197479
-0.44345075 0.17475393 1.1197479
-0.44143048 0.17475393 1.1197479
-0.43941015 0.17475392 1.1197478
-0.43738988 0.17475392 1.1197478
-0.43536961 0.17475392 1.1197478
-0.43390122 0.17497648 1.1211739
-0.43332002 0.17556058 1.1249164
-0.43272701 0.17614534 1.1286634
-0.43182299 0.17660846 1.1316308
-0.4309141 0.17707397 1.1346136
-0.43000048 0.17754197 1.1376123
-0.42908201 0.17801243 1.1406269
-0.42815861 0.17848539 1.1436574
-0.42723033 0.17896089 1.1467042
-0.42629713 0.17943893 1.1497673
-0.42535886 0.17991953 1.1528467
-0.42441556 0.18040268 1.1559426
-0.42346716 0.18088844 1.1590551
-0.42251369 0.18137684 1.1621846
-0.42155501 0.18186787 1.1653309
-0.42059115 0.18236157 1.1684943
-0.41962203 0.18285796 1.171675
-0.41864765 0.18335706 1.174873
-0.41766787 0.18385889 1.1780884
-0.41636857 0.18422446 1.1804309
-0.41480002 0.18447404 1.1820301
-0.41322717 0.18472429 1.1836336
-0.41165003 0.18497521 1.1852413
-0.4100686 0.18522681 1.1868535
-0.40848288 0.1854791 1.1884701
-0.3912344 0.18543439 1.1881835
-0.38801613 0.18492229 1.1849023
-0.36465991 0.17475392 1.1197478
-0.36263964 0.17475392 1.1197478
-0.36061937 0.17475392 1.1197478
-0.35859913 0.17475393 1.1197479
-0.35657886 0.17475393 1.1197479
-0.35455859 0.17475393 1.1197479
-0.35253829 0.17475393 1.1197479
-0.35051802 0.17475393 1.1197479
-0.34849772 0.17475392 1.1197478
-0.34647742 0.17475392 1.1197478
-0.34637871 0.1757288 1.1259943
-0.34623033 0.1766898 1.1321521
-0.34418765 0.1766898 1.1321521
-0.342145 0.1766898 1.1321521
-0.34010234 0.1766898 1.1321521
-0.33805972 0.17668983 1.1321522
-0.33601707 0.17668983 1.1321522
-0.33397442 0.17668983 1.1321522
-0.33193177 0.17668983 1.1321522
-0.32988909 0.17668983 1.1321522
-0.32784644 0.17668983 1.1321522
-0.32580379 0.17668983 1.1321522
-0.32376114 0.17668983 1.1321522
-0.32171848 0.17668983 1.1321522
-0.3196758 0.17668983 1.1321522
-0.31763315 0.17668983 1.1321522
-0.3155905 0.17668983 1.1321522
-0.31354785 0.17668983 1.1321522
-0.3115052 0.17668983 1.1321522
-0.30946252 0.17668983 1.1321522
-0.30741987 0.17668983 1.1321522
-0.30537722 0.17668983 1.1321522
-0.30333456 0.17668983 1.1321522
-0.30129191 0.17668983 1.1321522
-0.29924923 0.17668983 1.1321522
-0.29720658 0.17668983 1.1321522
-0.29516393 0.17668983 1.1321522
-0.29312128 0.17668983 1.1321522
-0.29107863 0.17668983 1.1321522
-0.28903595 0.17668983 1.1321522
-0.28699329 0.17668983 1.1321522
-0.28495064 0.17668983 1.1321522
-0.28290799 0.17668983 1.1321522
-0.28086534 0.17668983 1.1321522
-0.27882266 0.17668983 1.1321522
-0.27678001 0.17668983 1.1321522
-0.27473736 0.17668983 1.1321522
-0.27269471 0.17668983 1.1321522
-0.27065206 0.17668983 1.1321522
-0.26860937 0.17668983 1.1321522
-0.26656672 0.17668983 1.1321522
-0.26452407 0.17668983 1.1321522
-0.26248142 0.17668983 1.1321522
-0.26043877 0.17668983 1.1321522
-0.25839612 0.17668983 1.1321522
-0.25635344 0.17668983 1.1321522
-0.25431079 0.17668983 1.1321522
-0.25226814 0.17668983 1.1321522
-0.25046867 0.17686154 1.1332525
-0.25072813 0.17850192 1.1437633
-0.25135106 0.18043044 1.1561204
-0.25256258 0.18281728 1.1714143
-0.25380662 0.18526812 1.1871182
-0.54845256 0.17873222 1.1321505
-0.5464099 0.17873222 1.1321505
-0.54436725 0.17873222 1.1321505
-0.5423246 0.17873222 1.1321505
-0.54028195 0.17873222 1.1321505
-0.5382393 0.17873222 1.1321505
-0.53619665 0.17873222 1.1321505
-0.534154 0.17873222 1.1321505
-0.53211135 0.17873222 1.1321505
-0.5300687 0.17873222 1.1321505
-0.52802604 0.17873222 1.1321505
-0.52598339 0.17873222 1.1321505
-0.52394074 0.17873222 1.1321505
