# .PCD v0.7 - Point Cloud Data file format
VERSION 0.7
FIELDS x y z
SIZE 4 4 4
TYPE F F F
COUNT 1 1 1
WIDTH 1367
HEIGHT 1
VIEWPOINT 0 0 0 1 0 0 0
POINTS 1367
DATA ascii
0.09920729 0.0071253856 0.64610052
0.10030286 0.0071253399 0.64609641
0.10139842 0.0071252948 0.6460923
0.10249397 0.0071252491 0.64608818
0.10358951 0.0071252044 0.64608413
0.10468503 0.0071251593 0.64608002
0.10578053 0.0071251141 0.6460759
0.10687603 0.0071250685 0.64607179
0.1079715 0.0071250233 0.64606768
0.10906698 0.0071249786 0.64606363
0.11016243 0.0071249329 0.64605951
0.11125787 0.0071248878 0.6460554
0.11235329 0.0071248426 0.64605129
0.11344869 0.007124797 0.64604717
0.11454409 0.0071247518 0.64604306
0.11563948 0.0071247071 0.64603901
0.11673484 0.0071246615 0.6460349
0.11783019 0.0071246163 0.64603078
0.11892553 0.0071245711 0.64602667
0.12002085 0.0071245255 0.64602256
0.12111618 0.0071244808 0.64601851
0.12221147 0.0071244356 0.64601439
0.12330675 0.00712439 0.64601028
0.12440202 0.0071243448 0.64600617
0.12549728 0.0071242996 0.64600205
0.12659253 0.0071242549 0.645998
0.12768775 0.0071242093 0.64599389
0.12878296 0.0071241641 0.64598978
0.12987816 0.0071241185 0.64598566
0.13097335 0.0071240733 0.64598155
0.13206853 0.0071240286 0.6459775
0.13316369 0.0071239835 0.64597338
0.13425884 0.0071239378 0.64596927
0.13535395 0.0071238927 0.64596516
0.13644907 0.007123847 0.64596105
0.13754418 0.0071238023 0.64595699
0.13863927 0.0071237572 0.64595288
0.13973434 0.007123712 0.64594877
0.1408294 0.0071236663 0.64594465
0.14192447 0.0071236216 0.6459406
0.1430195 0.0071235765 0.64593649
0.14411451 0.0071235308 0.64593238
0.14520952 0.0071234857 0.64592826
0.1463045 0.0071234405 0.64592415
0.1473995 0.0071233958 0.6459201
0.14849445 0.0071233502 0.64591599
0.1495894 0.007123305 0.64591187
0.15068434 0.0071232594 0.64590776
0.15177925 0.0071232142 0.64590365
0.15287417 0.0071231695 0.64589959
-0.15314564 0.0082336366 0.64704657
-0.15204686 0.0082335845 0.64704245
-0.15094809 0.0082335323 0.64703834
-0.14984934 0.0082334802 0.64703423
-0.14875059 0.0082334271 0.64703012
-0.14765187 0.0082333749 0.647026
-0.14655314 0.0082333228 0.64702189
-0.14545445 0.0082332706 0.64701778
-0.14435576 0.0082332185 0.64701366
-0.14325708 0.0082331663 0.64700955
-0.14215843 0.0082331132 0.64700544
-0.14105979 0.0082330611 0.64700133
-0.13996115 0.0082330089 0.64699721
-0.13886254 0.0082329568 0.6469931
-0.13776393 0.0082329046 0.64698899
-0.13666534 0.0082328515 0.64698488
-0.13556677 0.0082327994 0.64698076
-0.1344682 0.0082327472 0.64697665
-0.13336965 0.0082326951 0.64697254
-0.13227113 0.0082326429 0.64696842
-0.1311726 0.0082325898 0.64696431
-0.1300741 0.0082325377 0.6469602
-0.1289756 0.0082324855 0.64695609
-0.12787713 0.0082324333 0.64695197
-0.12677866 0.0082323812 0.64694786
-0.12568021 0.0082323281 0.64694375
-0.12458178 0.008232276 0.64693964
-0.12348336 0.0082322238 0.64693552
-0.12238495 0.0082321716 0.64693141
-0.12128656 0.0082321195 0.6469273
-0.12018818 0.0082320664 0.64692318
-0.11908981 0.0082320143 0.64691907
-0.11799145 0.0082319621 0.64691496
-0.11689312 0.0082319099 0.64691085
-0.11579479 0.0082318578 0.64690673
-0.11469649 0.0082318047 0.64690262
-0.11359819 0.0082317526 0.64689851
-0.11249991 0.0082317004 0.6468944
-0.11140164 0.0082316482 0.64689028
-0.11030339 0.0082315961 0.64688617
-0.10920514 0.0082315439 0.64688206
-0.10810692 0.0082314909 0.64687794
-0.1070087 0.0082314387 0.64687383
-0.10591051 0.0082313865 0.64686972
-0.10481232 0.0082313344 0.64686561
-0.10371415 0.0082312822 0.64686149
-0.102616 0.0082312291 0.64685738
-0.10151785 0.008231177 0.64685327
-0.10041972 0.0082311248 0.64684916
-0.099321611 0.0082310727 0.64684504
-0.098223507 0.0082310205 0.64684093
-0.097125418 0.0082309674 0.64683682
-0.096027344 0.0082309153 0.6468327
-0.094929285 0.0082308631 0.64682859
-0.093831241 0.008230811 0.64682448
-0.092733212 0.0082307588 0.64682037
-0.091635197 0.0082307057 0.64681625
-0.09053719 0.0082306536 0.64681214
-0.089439206 0.0082306014 0.64680803
-0.088341229 0.0082305493 0.64680392
-0.087243274 0.0082304971 0.64679986
-0.086145326 0.008230445 0.64679575
-0.085047394 0.0082303928 0.64679164
-0.083949476 0.0082303407 0.64678752
-0.082851566 0.0082302885 0.64678341
-0.081753679 0.0082302364 0.6467793
-0.080655798 0.0082301833 0.64677519
-0.079557933 0.0082301311 0.64677107
-0.078460082 0.008230079 0.64676696
-0.077362247 0.0082300268 0.64676285
-0.076264426 0.0082299747 0.64675874
-0.07516662 0.0082299216 0.64675462
-0.074068829 0.0082298694 0.64675051
-0.072971046 0.0082298173 0.6467464
-0.071873277 0.0082297651 0.64674228
-0.070775531 0.008229713 0.64673817
-0.069677792 0.0082296599 0.64673406
-0.067263991 0.0080716787 0.63431895
-0.066187344 0.0080716265 0.63431489
-0.065110706 0.0080715753 0.63431084
-0.064034097 0.008071525 0.63430685
-0.062957488 0.0080714729 0.63430279
-0.061880898 0.0080714216 0.63429874
-0.060804326 0.0080713704 0.63429475
-0.059727762 0.0080713192 0.6342907
-0.058651209 0.008071267 0.63428664
-0.057574678 0.0080712168 0.63428265
-0.056498155 0.0080711646 0.6342786
-0.055421647 0.0080711134 0.63427454
-0.054345157 0.0080710631 0.63427055
-0.053268675 0.0080710109 0.6342665
-0.053164899 0.0082213767 0.64608306
-0.053205542 0.0084008751 0.66018909
-0.053247999 0.0085883867 0.67492485
-0.053292397 0.0087844608 0.69033349
0.052982554 0.0089296438 0.70174283
0.052877087 0.008716003 0.68495369
0.052776549 0.008512347 0.66894919
0.0526806 0.0083179893 0.6536755
0.05258891 0.0081323059 0.63908339
0.053235184 0.0080659371 0.63386774
0.054310296 0.0080658849 0.63386369
0.055385396 0.0080658346 0.63385969
0.056460481 0.0080657834 0.63385564
0.057535555 0.0080657322 0.63385165
0.058610611 0.008065681 0.63384759
0.059685655 0.0080656288 0.63384354
0.060760688 0.0080655785 0.63383955
0.061835703 0.0080655264 0.63383549
0.062910713 0.0080654761 0.6338315
0.063985698 0.0080654239 0.63382745
0.065060675 0.0080653736 0.63382345
0.066135637 0.0080653215 0.6338194
0.067210592 0.0080652712 0.63381541
0.069621593 0.0082230233 0.64621246
0.070717543 0.0082229702 0.64620835
0.071813494 0.008222919 0.64620429
0.072909415 0.0082228668 0.64620018
0.074005328 0.0082228146 0.64619607
0.075101227 0.0082227616 0.64619195
0.07619711 0.0082227094 0.64618784
0.077292979 0.0082226573 0.64618373
0.07838884 0.008222606 0.64617968
0.079484686 0.0082225529 0.64617556
0.08058051 0.0082225008 0.64617145
0.081676327 0.0082224486 0.64616734
0.082772121 0.0082223965 0.64616323
0.083867908 0.0082223443 0.64615911
0.084963687 0.0082222922 0.64615506
0.086059444 0.00822224 0.64615095
0.087155193 0.0082221879 0.64614683
0.08825092 0.0082221357 0.64614272
0.08934664 0.0082220836 0.64613861
0.090442337 0.0082220305 0.6461345
0.091538034 0.0082219793 0.64613044
0.092633709 0.0082219271 0.64612633
0.093729369 0.0082218749 0.64612222
0.094825014 0.0082218219 0.6461181
0.095920652 0.0082217697 0.64611399
0.097016267 0.0082217176 0.64610988
0.098111883 0.0082216663 0.64610583
0.099207468 0.0082216132 0.64610171
0.10030305 0.0082215611 0.6460976
0.10139861 0.0082215089 0.64609349
0.10249416 0.0082214568 0.64608938
0.10358971 0.0082214046 0.64608532
0.10468522 0.0082213525 0.64608121
0.10578074 0.0082213003 0.6460771
0.10687622 0.0082212482 0.64607298
0.10797171 0.008221196 0.64606887
0.10906717 0.0082211439 0.64606476
0.11016263 0.0082210917 0.64606071
0.11125807 0.0082210395 0.64605659
0.11235349 0.0082209874 0.64605248
0.1134489 0.0082209352 0.64604837
0.11454429 0.0082208822 0.64604425
0.11563969 0.0082208309 0.6460402
0.11673506 0.0082207788 0.64603609
0.11783041 0.0082207266 0.64603198
0.11892575 0.0082206735 0.64602786
0.12002108 0.0082206214 0.64602375
0.1211164 0.0082205702 0.6460197
0.12221169 0.008220518 0.64601558
0.12330698 0.0082204649 0.64601147
0.12440225 0.0082204128 0.64600736
0.12549751 0.0082203606 0.64600325
0.12659276 0.0082203094 0.64599919
0.12768799 0.0082202563 0.64599508
0.1287832 0.0082202042 0.64599097
0.1298784 0.008220152 0.64598686
0.13097359 0.0082200998 0.64598274
0.13206877 0.0082200486 0.64597869
0.13316393 0.0082199955 0.64597458
0.13425907 0.0082199434 0.64597046
0.13535421 0.0082198912 0.64596635
0.13644932 0.0082198391 0.64596224
0.13754444 0.0082197869 0.64595819
0.13863952 0.0082197348 0.64595407
0.13973461 0.0082196826 0.64594996
0.14082967 0.0082196305 0.64594585
0.14192471 0.0082195783 0.64594173
0.14301977 0.0082195261 0.64593768
0.14411478 0.008219474 0.64593357
0.14520979 0.0082194218 0.64592946
0.14630477 0.0082193697 0.64592534
0.14739977 0.0082193175 0.64592129
0.14849474 0.0082192654 0.64591718
0.14958967 0.0082192132 0.64591306
0.15068461 0.0082191611 0.64590895
0.15177953 0.008219108 0.64590484
0.15287445 0.0082190568 0.64590079
0.15396935 0.0082190046 0.64589667
-0.15424474 0.0093315318 0.64705187
-0.15314592 0.0093314722 0.64704776
-0.15204714 0.0093314126 0.64704365
-0.15094838 0.0093313539 0.64703953
-0.14984961 0.0093312943 0.64703542
-0.14875087 0.0093312347 0.64703131
-0.14765213 0.0093311761 0.64702719
-0.14655341 0.0093311165 0.64702308
-0.14545472 0.0093310568 0.64701897
-0.14435603 0.0093309982 0.64701486
-0.14325735 0.0093309386 0.64701074
-0.14215869 0.009330879 0.64700663
-0.14106004 0.0093308203 0.64700252
-0.13996141 0.0093307607 0.64699841
-0.13886279 0.0093307011 0.64699429
-0.13776419 0.0093306415 0.64699018
-0.1366656 0.0093305828 0.64698607
-0.13556701 0.0093305232 0.64698195
-0.13446845 0.0093304636 0.64697784
-0.13336991 0.0093304049 0.64697373
-0.13227136 0.0093303453 0.64696962
-0.13117285 0.0093302857 0.6469655
-0.13007434 0.009330227 0.64696139
-0.12897584 0.0093301674 0.64695728
-0.12787737 0.0093301078 0.64695317
-0.1267789 0.0093300492 0.64694905
-0.12568045 0.0093299896 0.64694494
-0.12458201 0.0093299299 0.64694083
-0.12348358 0.0093298713 0.64693671
-0.12238517 0.0093298117 0.6469326
-0.12128678 0.0093297521 0.64692849
-0.1201884 0.0093296934 0.64692438
-0.11909003 0.0093296338 0.64692026
-0.11799168 0.0093295742 0.64691615
-0.11689334 0.0093295146 0.64691204
-0.11579501 0.0093294559 0.64690793
-0.1146967 0.0093293963 0.64690381
-0.1135984 0.0093293367 0.6468997
-0.11250012 0.009329278 0.64689559
-0.11140184 0.0093292184 0.64689147
-0.11030359 0.0093291588 0.64688736
-0.10920534 0.0093291001 0.64688325
-0.10810712 0.0093290405 0.64687914
-0.1070089 0.0093289809 0.64687502
-0.1059107 0.0093289223 0.64687091
-0.10481252 0.0093288627 0.6468668
-0.10371434 0.009328803 0.64686269
-0.10261618 0.0093287444 0.64685857
-0.10151804 0.0093286848 0.64685446
-0.10041991 0.0093286252 0.64685035
-0.09932179 0.0093285656 0.64684623
-0.098223686 0.0093285069 0.64684212
-0.097125597 0.0093284473 0.64683801
-0.096027523 0.0093283877 0.6468339
-0.094929464 0.009328329 0.64682978
-0.09383142 0.0093282694 0.64682567
-0.092733383 0.0093282098 0.64682156
-0.091635361 0.0093281511 0.64681745
-0.090537362 0.0093280915 0.64681333
-0.08943937 0.0093280319 0.64680922
-0.088341393 0.0093279732 0.64680511
-0.08724343 0.0093279136 0.64680099
-0.086145483 0.009327855 0.64679694
-0.08504755 0.0093277954 0.64679283
-0.083949625 0.0093277367 0.64678872
-0.082851723 0.0093276771 0.6467846
-0.081753828 0.0093276175 0.64678049
-0.080655947 0.0093275588 0.64677638
-0.079558082 0.0093274992 0.64677227
-0.078460231 0.0093274396 0.64676815
-0.077362396 0.0093273809 0.64676404
-0.076264568 0.0093273213 0.64675993
-0.075166762 0.0093272617 0.64675581
-0.074068964 0.009327203 0.6467517
-0.07297118 0.0093271434 0.64674759
-0.071873412 0.0093270838 0.64674348
-0.070775658 0.0093270252 0.64673936
-0.069677919 0.0093269655 0.64673525
-0.06726411 0.0091479188 0.63432008
-0.066187456 0.0091478601 0.63431603
-0.065110832 0.0091478024 0.63431203
-0.064034209 0.0091477446 0.63430798
-0.062957607 0.0091476869 0.63430399
-0.061881013 0.0091476282 0.63429993
-0.060804434 0.0091475695 0.63429588
-0.059727874 0.0091475118 0.63429189
-0.058651321 0.0091474541 0.63428783
-0.057574783 0.0091473954 0.63428378
-0.056498263 0.0091473376 0.63427979
-0.055421751 0.009147279 0.63427573
-0.054345254 0.0091472203 0.63427168
-0.053662013 0.009214689 0.63894999
-0.053641684 0.0094011202 0.65187716
-0.053619403 0.0095950505 0.66532439
-0.053596184 0.0097971521 0.67933816
-0.053571962 0.010007949 0.69395489
0.053112026 0.0099220267 0.68799704
0.053005539 0.0096891839 0.67185163
0.052903932 0.0094670197 0.65644664
0.052806828 0.0092548048 0.64173162
0.053235278 0.0091414116 0.63386887
0.054310396 0.0091413539 0.63386488
0.055385496 0.0091412952 0.63386083
0.056460585 0.0091412375 0.63385683
0.05753566 0.0091411797 0.63385278
0.058610722 0.009141122 0.63384879
0.059685767 0.0091410633 0.63384473
0.060760804 0.0091410056 0.63384074
0.061835822 0.0091409469 0.63383669
0.062910825 0.0091408892 0.63383263
0.063985817 0.0091408314 0.63382864
0.065060794 0.0091407727 0.63382459
0.066135764 0.009140715 0.63382059
0.067210712 0.0091406573 0.63381654
0.069621719 0.0093194433 0.64621365
0.070717677 0.0093193837 0.64620954
0.071813628 0.009319325 0.64620548
0.072909549 0.0093192663 0.64620137
0.074005462 0.0093192067 0.64619726
0.075101368 0.0093191471 0.64619315
0.076197252 0.0093190884 0.64618903
0.07729312 0.0093190288 0.64618492
0.078388989 0.0093189701 0.64618087
0.079484828 0.0093189115 0.64617676
0.080580659 0.0093188519 0.64617264
0.081676476 0.0093187923 0.64616853
0.082772277 0.0093187327 0.64616442
0.083868064 0.009318674 0.6461603
0.084963843 0.0093186153 0.64615625
0.086059608 0.0093185557 0.64615214
0.08715535 0.009318497 0.64614803
0.088251084 0.0093184374 0.64614391
0.089346804 0.0093183778 0.6461398
0.090442508 0.0093183191 0.64613569
0.091538206 0.0093182605 0.64613163
0.092633881 0.0093182009 0.64612752
0.093729541 0.0093181413 0.64612341
0.094825193 0.0093180826 0.6461193
0.095920824 0.009318023 0.64611518
0.097016446 0.0093179634 0.64611107
0.098112062 0.0093179056 0.64610702
0.099207655 0.009317846 0.64610291
0.10030323 0.0093177864 0.64609879
0.1013988 0.0093177278 0.64609468
0.10249435 0.0093176682 0.64609057
0.10358989 0.0093176095 0.64608651
0.10468542 0.0093175499 0.6460824
0.10578093 0.0093174912 0.64607829
0.10687643 0.0093174316 0.64607418
0.10797191 0.009317372 0.64607006
0.10906737 0.0093173133 0.64606595
0.11016283 0.0093172546 0.6460619
0.11125828 0.009317195 0.64605778
0.1123537 0.0093171364 0.64605367
0.11344911 0.0093170768 0.64604956
0.11454451 0.0093170172 0.64604545
0.1156399 0.0093169585 0.64604139
0.11673527 0.0093168998 0.64603728
0.11783063 0.0093168402 0.64603317
0.11892597 0.0093167806 0.64602906
0.1200213 0.0093167219 0.64602494
0.12111662 0.0093166633 0.64602089
0.12221192 0.0093166037 0.64601678
0.12330721 0.009316545 0.64601266
0.12440248 0.0093164854 0.64600855
0.12549774 0.0093164258 0.64600444
0.12659299 0.0093163671 0.64600039
0.12768823 0.0093163084 0.64599627
0.12878343 0.0093162488 0.64599216
0.12987864 0.0093161892 0.64598805
0.13097383 0.0093161305 0.64598393
0.13206902 0.0093160719 0.64597988
0.13316418 0.0093160123 0.64597577
0.13425933 0.0093159536 0.64597166
0.13535446 0.009315894 0.64596754
0.13644958 0.0093158344 0.64596343
0.13754469 0.0093157757 0.64595938
0.13863978 0.009315717 0.64595526
0.13973486 0.0093156574 0.64595115
0.14082992 0.0093155978 0.64594704
0.14192498 0.0093155392 0.64594293
0.14302002 0.0093154805 0.64593887
0.14411505 0.0093154209 0.64593476
0.14521006 0.0093153622 0.64593065
0.14630504 0.0093153026 0.64592654
0.14740002 0.009315243 0.64592242
0.148495 0.0093151843 0.64591837
0.14958996 0.0093151256 0.64591426
0.15068489 0.009315066 0.64591014
0.15177982 0.0093150064 0.64590603
0.15287474 0.0093149487 0.64590198
0.15396963 0.0093148891 0.64589787
-0.15424502 0.010429378 0.64705306
-0.15314621 0.010429312 0.64704895
-0.15204743 0.010429245 0.64704484
-0.15094864 0.010429179 0.64704072
-0.14984989 0.010429113 0.64703661
-0.14875114 0.010429047 0.6470325
-0.1476524 0.01042898 0.64702839
-0.14655368 0.010428914 0.64702427
-0.14545499 0.010428848 0.64702016
-0.1443563 0.010428782 0.64701605
-0.14325762 0.010428715 0.64701194
-0.14215896 0.010428648 0.64700782
-0.14106031 0.010428582 0.64700371
-0.13996166 0.010428516 0.6469996
-0.13886304 0.01042845 0.64699548
-0.13776444 0.010428384 0.64699137
-0.13666585 0.010428318 0.64698726
-0.13556726 0.010428251 0.64698315
-0.1344687 0.010428185 0.64697903
-0.13337015 0.010428119 0.64697492
-0.13227162 0.010428052 0.64697081
-0.13117309 0.010427986 0.6469667
-0.13007458 0.01042792 0.64696258
-0.12897608 0.010427853 0.64695847
-0.12787759 0.010427787 0.64695436
-0.12677914 0.010427721 0.64695024
-0.12568069 0.010427655 0.64694613
-0.12458224 0.010427589 0.64694202
-0.12348381 0.010427522 0.64693791
-0.1223854 0.010427455 0.64693379
-0.121287 0.010427389 0.64692968
-0.12018862 0.010427323 0.64692557
-0.11909025 0.010427257 0.64692146
-0.11799189 0.010427191 0.64691734
-0.11689355 0.010427124 0.64691323
-0.11579522 0.010427058 0.64690912
-0.11469691 0.010426992 0.646905
-0.11359861 0.010426925 0.64690089
-0.11250032 0.010426859 0.64689678
-0.11140205 0.010426792 0.64689267
-0.11030379 0.010426726 0.64688855
-0.10920554 0.01042666 0.64688444
-0.10810731 0.010426594 0.64688033
-0.1070091 0.010426528 0.64687622
-0.1059109 0.010426462 0.6468721
-0.10481271 0.010426395 0.64686799
-0.10371453 0.010426329 0.64686388
-0.10261637 0.010426262 0.64685977
-0.10151823 0.010426196 0.64685565
-0.1004201 0.01042613 0.64685154
-0.099321976 0.010426064 0.64684743
-0.098223872 0.010425997 0.64684331
-0.097125776 0.010425931 0.6468392
-0.096027702 0.010425865 0.64683509
-0.094929636 0.010425799 0.64683098
-0.093831591 0.010425732 0.64682686
-0.092733555 0.010425665 0.64682275
-0.091635533 0.010425599 0.64681864
-0.090537526 0.010425533 0.64681453
-0.089439534 0.010425467 0.64681041
-0.088341556 0.010425401 0.6468063
-0.087243587 0.010425335 0.64680219
-0.086145639 0.010425268 0.64679807
-0.085047707 0.010425203 0.64679402
-0.083949782 0.010425136 0.64678991
-0.082851872 0.01042507 0.6467858
-0.081753977 0.010425004 0.64678168
-0.080656096 0.010424938 0.64677757
-0.079558231 0.010424871 0.64677346
-0.078460373 0.010424805 0.64676934
-0.077362537 0.010424739 0.64676523
-0.076264709 0.010424673 0.64676112
-0.075166896 0.010424607 0.64675701
-0.074069098 0.010424539 0.64675289
-0.072971314 0.010424473 0.64674878
-0.071873546 0.010424407 0.64674467
-0.070775792 0.010424341 0.64674056
-0.06834089 0.010224228 0.63432527
-0.067264237 0.010224164 0.63432127
-0.066187583 0.010224098 0.63431722
-0.065110944 0.010224033 0.63431317
-0.064034328 0.010223969 0.63430917
-0.062957719 0.010223904 0.63430512
-0.061881125 0.010223838 0.63430107
-0.06080455 0.010223773 0.63429707
-0.059727978 0.010223708 0.63429302
-0.058651429 0.010223644 0.63428903
-0.057574891 0.010223579 0.63428497
-0.056498364 0.010223513 0.63428092
-0.055421855 0.010223449 0.63427693
-0.054345354 0.010223383 0.63427287
-0.053804021 0.010326024 0.64064085
-0.053785425 0.01053529 0.65362394
-0.053766053 0.010753211 0.66714406
-0.053745866 0.010980338 0.68123537
-0.053724803 0.011217267 0.69593477
0.053349063 0.011138815 0.69106752
0.053236522 0.010876279 0.67477942
0.053129163 0.010625833 0.65924138
0.053026561 0.010386646 0.64440191
0.053235378 0.010216891 0.63387007
0.054310493 0.010216826 0.63386601
0.055385601 0.010216761 0.63386202
0.056460686 0.010216696 0.63385797
0.057535768 0.010216632 0.63385397
0.058610827 0.010216566 0.63384992
0.059685878 0.010216502 0.63384593
0.060760912 0.010216436 0.63384187
0.061835937 0.010216372 0.63383788
0.062910944 0.010216307 0.63383383
0.063985936 0.010216243 0.63382983
0.065060921 0.010216177 0.63382578
0.066135883 0.010216111 0.63382173
0.067210838 0.010216047 0.63381773
0.069621854 0.010415867 0.64621484
0.070717804 0.010415801 0.64621073
0.071813755 0.010415736 0.64620668
0.072909683 0.01041567 0.64620256
0.074005604 0.010415603 0.64619845
0.075101502 0.010415537 0.64619434
0.076197393 0.01041547 0.64619023
0.077293262 0.010415404 0.64618611
0.078389131 0.010415339 0.64618206
0.079484977 0.010415273 0.64617795
0.080580808 0.010415207 0.64617383
0.081676625 0.010415141 0.64616972
0.082772426 0.010415073 0.64616561
0.08386822 0.010415007 0.6461615
0.084964 0.010414942 0.64615744
0.086059764 0.010414876 0.64615333
0.087155513 0.01041481 0.64614922
0.088251248 0.010414744 0.64614511
0.089346968 0.010414677 0.64614099
0.090442672 0.010414611 0.64613688
0.09153837 0.010414545 0.64613283
0.092634052 0.010414479 0.64612871
0.09372972 0.010414413 0.6461246
0.094825365 0.010414347 0.64612049
0.095921002 0.01041428 0.64611638
0.097016625 0.010414214 0.64611226
0.09811224 0.010414149 0.64610821
0.099207841 0.010414083 0.6461041
0.10030342 0.010414016 0.64609998
0.10139898 0.010413949 0.64609587
0.10249454 0.010413883 0.64609176
0.10359008 0.010413817 0.64608765
0.10468561 0.010413752 0.64608359
0.10578112 0.010413686 0.64607948
0.10687662 0.01041362 0.64607537
0.1079721 0.010413553 0.64607126
0.10906757 0.010413487 0.64606714
0.11016304 0.010413421 0.64606309
0.11125848 0.010413355 0.64605898
0.11235391 0.010413289 0.64605486
0.11344932 0.010413223 0.64605075
0.11454472 0.010413156 0.64604664
0.11564012 0.010413091 0.64604259
0.11673549 0.010413025 0.64603847
0.11783084 0.010412958 0.64603436
0.11892619 0.010412892 0.64603025
0.12002151 0.010412826 0.64602613
0.12111683 0.010412759 0.64602202
0.12221215 0.010412694 0.64601797
0.12330744 0.010412628 0.64601386
0.12440271 0.010412562 0.64600974
0.12549797 0.010412496 0.64600563
0.12659322 0.010412429 0.64600152
0.12768845 0.010412363 0.64599746
0.12878367 0.010412297 0.64599335
0.12987888 0.010412231 0.64598924
0.13097407 0.010412165 0.64598513
0.13206924 0.010412099 0.64598101
0.13316442 0.010412033 0.64597696
0.13425957 0.010411967 0.64597285
0.13535471 0.0104119 0.64596874
0.13644983 0.010411834 0.64596462
0.13754494 0.010411769 0.64596057
0.13864005 0.010411703 0.64595646
0.13973512 0.010411636 0.64595234
0.14083019 0.01041157 0.64594823
0.14192523 0.010411504 0.64594412
0.14302029 0.010411439 0.64594007
0.14411531 0.010411372 0.64593595
0.14521033 0.010411306 0.64593184
0.14630531 0.010411239 0.64592773
0.14740029 0.010411173 0.64592361
0.14849527 0.010411108 0.64591956
0.14959022 0.010411042 0.64591545
0.15068518 0.010410976 0.64591134
0.1517801 0.01041091 0.64590722
0.15287502 0.010410843 0.64590317
0.15396991 0.010410777 0.64589906
-0.1542453 0.011527228 0.64705426
-0.15314649 0.011527156 0.64705014
-0.15204771 0.011527082 0.64704603
-0.15094893 0.011527008 0.64704192
-0.14985016 0.011526936 0.6470378
-0.14875141 0.011526862 0.64703369
-0.14765267 0.011526789 0.64702958
-0.14655396 0.011526716 0.64702547
-0.14545526 0.011526642 0.64702135
-0.14435656 0.011526569 0.64701724
-0.14325787 0.011526496 0.64701313
-0.14215921 0.011526423 0.64700902
-0.14106056 0.011526349 0.6470049
-0.13996193 0.011526276 0.64700079
-0.1388633 0.011526203 0.64699668
-0.13776469 0.011526129 0.64699256
-0.13666609 0.011526057 0.64698845
-0.13556752 0.011525983 0.64698434
-0.13446894 0.011525909 0.64698023
-0.1333704 0.011525837 0.64697611
-0.13227186 0.011525763 0.646972
-0.13117333 0.01152569 0.64696789
-0.13007481 0.011525617 0.64696378
-0.12897632 0.011525543 0.64695966
-0.12787783 0.01152547 0.64695555
-0.12677936 0.011525397 0.64695144
-0.12568091 0.011525324 0.64694732
-0.12458247 0.01152525 0.64694321
-0.12348404 0.011525177 0.6469391
-0.12238563 0.011525104 0.64693499
-0.12128723 0.01152503 0.64693087
-0.12018884 0.011524958 0.64692676
-0.11909047 0.011524884 0.64692265
-0.11799211 0.01152481 0.64691854
-0.11689377 0.011524738 0.64691442
-0.11579543 0.011524664 0.64691031
-0.11469712 0.011524591 0.6469062
-0.11359882 0.011524518 0.64690208
-0.11250053 0.011524444 0.64689797
-0.11140225 0.011524371 0.64689386
-0.11030399 0.011524298 0.64688975
-0.10920575 0.011524225 0.64688563
-0.10810751 0.011524151 0.64688152
-0.1070093 0.011524078 0.64687741
-0.10591109 0.011524005 0.6468733
-0.1048129 0.011523931 0.64686918
-0.10371473 0.011523859 0.64686507
-0.10261656 0.011523785 0.64686096
-0.10151841 0.011523711 0.64685684
-0.10042028 0.011523639 0.64685273
-0.099322155 0.011523565 0.64684862
-0.098224051 0.011523492 0.64684451
-0.097125955 0.011523419 0.64684039
-0.096027881 0.011523345 0.64683628
-0.094929814 0.011523272 0.64683217
-0.093831763 0.011523199 0.64682806
-0.092733726 0.011523126 0.64682394
-0.091635704 0.011523052 0.64681983
-0.09053769 0.011522979 0.64681572
-0.089439698 0.011522906 0.6468116
-0.088341713 0.011522832 0.64680749
-0.087243751 0.01152276 0.64680338
-0.086145796 0.011522686 0.64679927
-0.085047856 0.011522613 0.64679515
-0.083949938 0.011522541 0.6467911
-0.082852028 0.011522467 0.64678699
-0.081754126 0.011522394 0.64678288
-0.080656245 0.011522321 0.64677876
-0.079558372 0.011522247 0.64677465
-0.078460522 0.011522174 0.64677054
-0.077362679 0.011522101 0.64676642
-0.076264851 0.011522028 0.64676231
-0.075167038 0.011521954 0.6467582
-0.074069239 0.011521881 0.64675409
-0.072971448 0.011521808 0.64674997
-0.07187368 0.011521734 0.64674586
-0.070775919 0.011521662 0.64674175
-0.068341024 0.011300484 0.63432646
-0.067264356 0.011300411 0.6343224
-0.06618771 0.01130034 0.63431841
-0.065111071 0.011300269 0.63431436
-0.064034447 0.011300196 0.63431031
-0.062957838 0.011300125 0.63430631
-0.06188124 0.011300053 0.63430226
-0.060804658 0.011299981 0.63429821
-0.059728093 0.011299909 0.63429421
-0.058651537 0.011299837 0.63429016
-0.057574991 0.011299765 0.63428611
-0.056498468 0.011299694 0.63428211
-0.055421952 0.011299621 0.63427806
-0.054345455 0.011299551 0.63427407
-0.053945702 0.011443028 0.64232785
-0.053929929 0.011675552 0.65538001
-0.053913504 0.011917721 0.66897368
-0.053896382 0.012170151 0.6831432
-0.053878125 0.012433413 0.69792086
0.053588226 0.012366514 0.69416559
0.053469531 0.012073766 0.67773283
0.053356327 0.011794557 0.66206008
0.05324813 0.011527945 0.64709449
0.053235475 0.011292374 0.6338712
0.054310597 0.011292302 0.6338672
0.055385698 0.01129223 0.63386315
0.056460794 0.011292159 0.63385916
0.057535868 0.011292087 0.6338551
0.058610938 0.011292015 0.63385111
0.059685986 0.011291943 0.63384706
0.060761027 0.011291872 0.63384306
0.061836045 0.0112918 0.63383901
0.062911063 0.011291728 0.63383502
0.063986056 0.011291657 0.63383096
0.06506104 0.011291586 0.63382697
0.066136003 0.011291513 0.63382292
0.067210965 0.011291442 0.63381892
0.06962198 0.011512295 0.64621603
0.070717938 0.011512223 0.64621192
0.071813889 0.01151215 0.64620787
0.072909825 0.011512077 0.64620376
0.074005738 0.011512004 0.64619964
0.075101644 0.01151193 0.64619553
0.076197535 0.011511858 0.64619142
0.077293403 0.011511784 0.64618731
0.078389265 0.01151171 0.64618319
0.079485126 0.011511639 0.64617914
0.080580957 0.011511565 0.64617503
0.081676774 0.011511492 0.64617091
0.082772583 0.011511419 0.6461668
0.083868377 0.011511345 0.64616269
0.084964149 0.011511272 0.64615858
0.08605992 0.0115112 0.64615452
0.08715567 0.011511127 0.64615041
0.088251412 0.011511053 0.6461463
0.089347132 0.01151098 0.64614218
0.090442836 0.011510907 0.64613807
0.091538534 0.011510833 0.64613396
0.092634223 0.011510761 0.64612991
0.093729891 0.011510688 0.64612579
0.094825543 0.011510615 0.64612168
0.095921181 0.011510542 0.64611757
0.097016804 0.011510468 0.64611346
0.098112427 0.011510396 0.6461094
0.09920802 0.011510323 0.64610529
0.10030361 0.011510249 0.64610118
0.10139918 0.011510177 0.64609706
0.10249472 0.011510103 0.64609295
0.10359026 0.011510029 0.64608884
0.10468581 0.011509958 0.64608479
0.10578132 0.011509884 0.64608067
0.10687682 0.011509811 0.64607656
0.1079723 0.011509738 0.64607245
0.10906778 0.011509664 0.64606833
0.11016324 0.011509593 0.64606428
0.11125869 0.011509519 0.64606017
0.11235411 0.011509445 0.64605606
0.11344953 0.011509373 0.64605194
0.11454493 0.011509299 0.64604783
0.11564032 0.011509226 0.64604372
0.1167357 0.011509154 0.64603966
0.11783106 0.01150908 0.64603555
0.11892641 0.011509007 0.64603144
0.12002174 0.011508934 0.64602733
0.12111706 0.011508861 0.64602321
0.12221237 0.011508789 0.64601916
0.12330766 0.011508715 0.64601505
0.12440294 0.011508642 0.64601094
0.12549821 0.011508568 0.64600682
0.12659346 0.011508496 0.64600271
0.12768869 0.011508423 0.64599866
0.12878391 0.01150835 0.64599454
0.12987912 0.011508277 0.64599043
0.13097431 0.011508203 0.64598632
0.1320695 0.01150813 0.64598221
0.13316467 0.011508058 0.64597815
0.13425982 0.011507984 0.64597404
0.13535495 0.011507912 0.64596993
0.13645008 0.011507838 0.64596581
0.13754518 0.011507764 0.6459617
0.1386403 0.011507693 0.64595765
0.13973537 0.011507619 0.64595354
0.14083044 0.011507547 0.64594942
0.1419255 0.011507473 0.64594531
0.14302056 0.0115074 0.64594126
0.14411558 0.011507328 0.64593714
0.14521059 0.011507254 0.64593303
0.14630559 0.011507181 0.64592892
0.14740057 0.011507108 0.64592481
0.14849555 0.011507035 0.64592075
0.14959051 0.011506962 0.64591664
0.15068544 0.011506889 0.64591253
0.15178038 0.011506815 0.64590842
0.15287529 0.011506742 0.6459043
0.1539702 0.01150667 0.64590025
-0.15424559 0.012625083 0.64705545
-0.15314677 0.012625003 0.64705133
-0.15204798 0.012624922 0.64704722
-0.15094921 0.012624842 0.64704311
-0.14985044 0.012624762 0.647039
-0.14875169 0.012624682 0.64703488
-0.14765295 0.012624602 0.64703077
-0.14655423 0.012624522 0.64702666
-0.14545552 0.012624442 0.64702255
-0.14435682 0.012624361 0.64701843
-0.14325814 0.012624281 0.64701432
-0.14215948 0.0126242 0.64701021
-0.14106081 0.01262412 0.64700609
-0.13996218 0.01262404 0.64700198
-0.13886356 0.01262396 0.64699787
-0.13776495 0.012623879 0.64699376
-0.13666634 0.012623799 0.64698964
-0.13556777 0.012623719 0.64698553
-0.1344692 0.012623639 0.64698142
-0.13337064 0.012623559 0.64697731
-0.13227209 0.012623479 0.64697319
-0.13117357 0.012623398 0.64696908
-0.13007505 0.012623318 0.64696497
-0.12897655 0.012623237 0.64696085
-0.12787807 0.012623157 0.64695674
-0.1267796 0.012623077 0.64695263
-0.12568115 0.012622997 0.64694852
-0.1245827 0.012622916 0.6469444
-0.12348427 0.012622836 0.64694029
-0.12238585 0.012622756 0.64693618
-0.12128745 0.012622676 0.64693207
-0.12018906 0.012622596 0.64692795
-0.11909069 0.012622516 0.64692384
-0.11799233 0.012622435 0.64691973
-0.11689398 0.012622355 0.64691561
-0.11579565 0.012622274 0.6469115
-0.11469733 0.012622194 0.64690739
-0.11359902 0.012622114 0.64690328
-0.11250073 0.012622034 0.64689916
-0.11140246 0.012621953 0.64689505
-0.1103042 0.012621873 0.64689094
-0.10920595 0.012621793 0.64688683
-0.10810772 0.012621713 0.64688271
-0.10700949 0.012621633 0.6468786
-0.10591128 0.012621553 0.64687449
-0.10481309 0.012621472 0.64687037
-0.10371491 0.012621392 0.64686626
-0.10261675 0.012621311 0.64686215
-0.1015186 0.012621231 0.64685804
-0.10042046 0.012621151 0.64685392
-0.099322341 0.012621071 0.64684981
-0.09822423 0.01262099 0.6468457
-0.097126134 0.01262091 0.64684159
-0.096028052 0.01262083 0.64683747
-0.094929986 0.01262075 0.64683336
-0.093831934 0.01262067 0.64682925
-0.092733897 0.01262059 0.64682513
-0.091635868 0.01262051 0.64682102
-0.090537861 0.012620429 0.64681691
-0.089439861 0.012620348 0.6468128
-0.088341877 0.012620268 0.64680868
-0.087243907 0.012620188 0.64680457
-0.086145952 0.012620108 0.64680046
-0.085048012 0.012620028 0.64679635
-0.083950087 0.012619947 0.64679223
-0.082852177 0.012619868 0.64678818
-0.081754282 0.012619788 0.64678407
-0.080656394 0.012619708 0.64677995
-0.079558522 0.012619628 0.64677584
-0.078460664 0.012619548 0.64677173
-0.077362821 0.012619467 0.64676762
-0.076264992 0.012619386 0.6467635
-0.075167172 0.012619306 0.64675939
-0.074069373 0.012619226 0.64675528
-0.072971582 0.012619146 0.64675117
-0.071873806 0.012619066 0.64674705
-0.070776053 0.012618986 0.64674294
-0.068341143 0.012376742 0.63432759
-0.067264482 0.012376664 0.6343236
-0.066187829 0.012376585 0.63431954
-0.06511119 0.012376508 0.63431555
-0.064034566 0.012376429 0.6343115
-0.06295795 0.012376349 0.63430744
-0.061881356 0.012376271 0.63430345
-0.060804769 0.012376192 0.6342994
-0.059728198 0.012376113 0.63429534
-0.058651645 0.012376036 0.63429135
-0.057575099 0.012375956 0.6342873
-0.056498569 0.012375877 0.63428324
-0.055422056 0.012375799 0.63427925
-0.054345552 0.01237572 0.6342752
-0.054088131 0.012565929 0.64402372
-0.054075215 0.012821958 0.65714562
-0.054061767 0.013088638 0.67081338
-0.054047745 0.013366647 0.68506175
-0.054032315 0.013656518 0.69991815
0.05382954 0.013605269 0.69729149
0.053704586 0.013281779 0.68071216
0.053585436 0.012973316 0.66490293
0.053471554 0.012678823 0.64980966
0.053362664 0.012397386 0.63538563
0.054310694 0.012367781 0.63386834
0.055385802 0.012367704 0.63386434
0.056460895 0.012367625 0.63386029
0.05753598 0.012367547 0.6338563
0.058611043 0.012367467 0.63385224
0.059686098 0.01236739 0.63384825
0.060761135 0.012367311 0.6338442
0.061836164 0.012367233 0.6338402
0.062911175 0.012367154 0.63383615
0.063986175 0.012367075 0.63383216
0.065061159 0.012366996 0.6338281
0.066136129 0.012366919 0.63382411
0.067211084 0.01236684 0.63382006
0.069622107 0.012608728 0.64621723
0.070718065 0.012608648 0.64621311
0.071814016 0.012608567 0.646209
0.072909959 0.012608489 0.64620495
0.074005872 0.012608408 0.64620084
0.075101778 0.012608328 0.64619672
0.076197669 0.012608248 0.64619261
0.077293552 0.012608168 0.6461885
0.078389414 0.012608088 0.64618438
0.079485267 0.012608008 0.64618033
0.080581106 0.012607928 0.64617622
0.08167693 0.012607847 0.64617211
0.082772732 0.012607767 0.64616799
0.083868526 0.012607687 0.64616388
0.084964305 0.012607607 0.64615977
0.086060084 0.012607528 0.64615571
0.087155834 0.012607448 0.6461516
0.088251576 0.012607368 0.64614749
0.089347295 0.012607288 0.64614338
0.090443008 0.012607207 0.64613926
0.091538705 0.012607126 0.64613515
0.092634395 0.012607047 0.6461311
0.093730062 0.012606967 0.64612699
0.094825715 0.012606887 0.64612287
0.09592136 0.012606807 0.64611876
0.097016983 0.012606727 0.64611465
0.098112598 0.012606647 0.64611053
0.099208206 0.012606568 0.64610648
0.10030379 0.012606487 0.64610237
0.10139936 0.012606407 0.64609826
0.10249492 0.012606326 0.64609414
0.10359046 0.012606246 0.64609003
0.104686 0.012606167 0.64608598
0.10578151 0.012606087 0.64608186
0.10687701 0.012606007 0.64607775
0.1079725 0.012605927 0.64607364
0.10906798 0.012605846 0.64606953
0.11016344 0.012605766 0.64606541
0.11125889 0.012605687 0.64606136
0.11235432 0.012605607 0.64605725
0.11344974 0.012605526 0.64605314
0.11454514 0.012605446 0.64604902
0.11564053 0.012605366 0.64604491
0.11673592 0.012605287 0.64604086
0.11783128 0.012605207 0.64603674
0.11892663 0.012605126 0.64603263
0.12002196 0.012605046 0.64602852
0.12111728 0.012604966 0.64602441
0.1222126 0.012604887 0.64602035
0.12330789 0.012604807 0.64601624
0.12440317 0.012604726 0.64601213
0.12549843 0.012604646 0.64600801
0.12659368 0.012604566 0.6460039
0.12768893 0.012604487 0.64599985
0.12878415 0.012604406 0.64599574
0.12987936 0.012604326 0.64599162
0.13097456 0.012604246 0.64598751
0.13206974 0.012604166 0.6459834
0.13316491 0.012604087 0.64597934
0.13426007 0.012604007 0.64597523
0.1353552 0.012603926 0.64597112
0.13645034 0.012603846 0.64596701
0.13754544 0.012603765 0.64596289
0.13864055 0.012603686 0.64595884
0.13973564 0.012603606 0.64595473
0.14083071 0.012603526 0.64595062
0.14192577 0.012603446 0.6459465
0.14302081 0.012603366 0.64594239
0.14411584 0.012603287 0.64593834
0.14521086 0.012603207 0.64593422
0.14630586 0.012603126 0.64593011
0.14740084 0.012603045 0.645926
0.14849582 0.012602966 0.64592195
0.14959079 0.012602886 0.64591783
0.15068573 0.012602806 0.64591372
0.15178065 0.012602726 0.64590961
0.15287557 0.012602646 0.64590549
0.15397049 0.012602567 0.64590144
-0.15424587 0.013722942 0.64705664
-0.15314706 0.013722855 0.64705253
-0.15204826 0.013722767 0.64704841
-0.15094948 0.013722681 0.6470443
-0.14985071 0.013722593 0.64704019
-0.14875196 0.013722505 0.64703608
-0.14765322 0.013722419 0.64703196
-0.1465545 0.013722331 0.64702785
-0.14545579 0.013722244 0.64702374
-0.14435709 0.013722157 0.64701962
-0.14325841 0.01372207 0.64701551
-0.14215973 0.013721982 0.6470114
-0.14106108 0.013721895 0.64700729
-0.13996243 0.013721808 0.64700317
-0.13886382 0.01372172 0.64699906
-0.1377652 0.013721634 0.64699495
-0.1366666 0.013721546 0.64699084
-0.13556801 0.013721459 0.64698672
-0.13446945 0.013721372 0.64698261
-0.13337089 0.013721284 0.6469785
-0.13227235 0.013721197 0.64697438
-0.13117382 0.01372111 0.64697027
-0.13007529 0.013721023 0.64696616
-0.12897679 0.013720935 0.64696205
-0.12787831 0.013720849 0.64695793
-0.12677984 0.013720761 0.64695382
-0.12568137 0.013720674 0.64694971
-0.12458292 0.013720587 0.6469456
-0.12348449 0.013720499 0.64694148
-0.12238608 0.013720412 0.64693737
-0.12128767 0.013720325 0.64693326
-0.12018929 0.013720238 0.64692914
-0.11909091 0.013720151 0.64692503
-0.11799254 0.013720063 0.64692092
-0.1168942 0.013719976 0.64691681
-0.11579587 0.013719889 0.64691269
-0.11469755 0.013719802 0.64690858
-0.11359923 0.013719714 0.64690447
-0.11250094 0.013719628 0.64690036
-0.11140267 0.01371954 0.64689624
-0.1103044 0.013719453 0.64689213
-0.10920615 0.013719366 0.64688802
-0.10810792 0.013719278 0.6468839
-0.10700969 0.013719191 0.64687979
-0.10591149 0.013719104 0.64687568
-0.10481329 0.013719017 0.64687157
-0.10371511 0.013718929 0.64686745
-0.10261694 0.013718843 0.64686334
-0.10151879 0.013718755 0.64685923
-0.10042065 0.013718667 0.64685512
-0.09932252 0.013718581 0.646851
-0.098224409 0.013718493 0.64684689
-0.097126313 0.013718406 0.64684278
-0.096028231 0.013718319 0.64683867
-0.094930165 0.013718232 0.64683455
-0.093832105 0.013718144 0.64683044
-0.092734069 0.013718057 0.64682633
-0.091636039 0.01371797 0.64682221
-0.090538025 0.013717882 0.6468181
-0.089440025 0.013717796 0.64681399
-0.088342041 0.013717708 0.64680988
-0.087244071 0.013717622 0.64680576
-0.086146116 0.013717534 0.64680165
-0.085048169 0.013717446 0.64679754
-0.083950236 0.01371736 0.64679343
-0.082852326 0.013717272 0.64678931
-0.081754431 0.013717187 0.64678526
-0.080656543 0.013717099 0.64678115
-0.079558671 0.013717012 0.64677703
-0.078460805 0.013716925 0.64677292
-0.077362962 0.013716837 0.64676881
-0.076265134 0.01371675 0.6467647
-0.075167313 0.013716663 0.64676058
-0.074069507 0.013716576 0.64675647
-0.072971717 0.013716488 0.64675236
-0.071873941 0.013716402 0.64674824
-0.070776179 0.013716314 0.64674413
-0.06834127 0.013453006 0.63432878
-0.067264602 0.01345292 0.63432473
-0.066187948 0.013452835 0.63432074
-0.065111309 0.01345275 0.63431668
-0.064034685 0.013452665 0.63431269
-0.062958069 0.013452579 0.63430864
-0.061881468 0.013452493 0.63430458
-0.060804885 0.013452408 0.63430059
-0.05972831 0.013452322 0.63429654
-0.058651749 0.013452237 0.63429248
-0.057575207 0.013452152 0.63428849
-0.056498677 0.013452065 0.63428444
-0.055422157 0.013451979 0.63428038
-0.054345656 0.013451895 0.63427639
-0.054231308 0.013694775 0.64572853
-0.054221291 0.013974559 0.65892076
-0.054210849 0.014266012 0.67266321
-0.054199703 0.014569812 0.68698782
-0.054187384 0.014886644 0.70192689
0.054073039 0.014855231 0.70044571
0.053941719 0.014500462 0.68371785
0.053816523 0.014162243 0.66777033
0.053696863 0.013839398 0.65254772
0.053582501 0.013530935 0.63800323
0.054310795 0.013443266 0.63386953
0.055385906 0.013443181 0.63386554
0.056461003 0.013443096 0.63386148
0.05753608 0.01344301 0.63385743
0.058611151 0.013442925 0.63385344
0.059686206 0.013442839 0.63384938
0.060761251 0.013442754 0.63384539
0.061836272 0.013442668 0.63384134
0.062911294 0.013442583 0.63383734
0.063986287 0.013442498 0.63383329
0.065061279 0.013442413 0.6338293
0.066136248 0.013442327 0.63382524
0.067211211 0.013442243 0.63382125
0.069622234 0.013705164 0.64621842
0.070718199 0.013705078 0.64621431
0.07181415 0.01370499 0.64621019
0.072910093 0.013704904 0.64620614
0.074006014 0.013704817 0.64620203
0.075101919 0.013704729 0.64619792
0.07619781 0.013704643 0.6461938
0.077293694 0.013704555 0.64618969
0.078389555 0.013704468 0.64618558
0.079485416 0.013704382 0.64618152
0.080581255 0.013704295 0.64617741
0.081677079 0.013704208 0.6461733
0.082772888 0.01370412 0.64616919
0.083868682 0.013704034 0.64616507
0.084964462 0.013703946 0.64616096
0.086060241 0.01370386 0.64615691
0.087155998 0.013703773 0.64615279
0.088251732 0.013703685 0.64614868
0.089347459 0.013703599 0.64614457
0.090443172 0.013703511 0.64614046
0.091538869 0.013703424 0.64613634
0.092634566 0.013703338 0.64613229
0.093730234 0.01370325 0.64612818
0.094825894 0.013703164 0.64612406
0.095921531 0.013703076 0.64611995
0.097017162 0.013702989 0.64611584
0.098112777 0.013702902 0.64611173
0.099208385 0.013702815 0.64610767
0.10030397 0.013702729 0.64610356
0.10139955 0.013702641 0.64609945
0.1024951 0.013702555 0.64609534
0.10359065 0.013702467 0.64609122
0.10468618 0.01370238 0.64608711
0.1057817 0.013702294 0.64608306
0.10687721 0.013702206 0.64607894
0.1079727 0.01370212 0.64607483
0.10906818 0.013702032 0.64607072
0.11016364 0.013701945 0.64606661
0.1112591 0.013701859 0.64606255
0.11235452 0.013701771 0.64605844
0.11344995 0.013701685 0.64605433
0.11454535 0.013701597 0.64605021
0.11564074 0.01370151 0.6460461
0.11673614 0.013701424 0.64604205
0.1178315 0.013701336 0.64603794
0.11892685 0.01370125 0.64603382
0.12002219 0.013701162 0.64602971
0.1211175 0.013701075 0.6460256
0.12221283 0.013700989 0.64602154
0.12330811 0.013700902 0.64601743
0.12440339 0.013700815 0.64601332
0.12549867 0.013700727 0.64600921
0.12659392 0.013700641 0.64600509
0.12768915 0.013700553 0.64600098
0.12878439 0.013700468 0.64599693
0.12987961 0.01370038 0.64599282
0.1309748 0.013700292 0.6459887
0.13206998 0.013700206 0.64598459
0.13316517 0.013700119 0.64598054
0.13426031 0.013700033 0.64597642
0.13535546 0.013699945 0.64597231
0.13645059 0.013699858 0.6459682
0.13754569 0.013699771 0.64596409
0.13864081 0.013699684 0.64596003
0.13973589 0.013699598 0.64595592
0.14083096 0.01369951 0.64595181
0.14192602 0.013699423 0.64594769
0.14302106 0.013699336 0.64594358
0.1441161 0.013699249 0.64593953
0.14521113 0.013699163 0.64593542
0.14630613 0.013699075 0.6459313
0.14740111 0.013698988 0.64592719
0.14849609 0.013698901 0.64592308
0.14959106 0.013698815 0.64591902
0.15068601 0.013698728 0.64591491
0.15178093 0.01369864 0.6459108
0.15287586 0.013698554 0.64590669
0.15397078 0.013698467 0.64590263
0.15506566 0.01369838 0.64589852
-0.15424615 0.014820805 0.64705783
-0.15314734 0.01482071 0.64705372
-0.15204854 0.014820616 0.64704961
-0.15094976 0.014820522 0.64704549
-0.14985099 0.014820428 0.64704138
-0.14875224 0.014820334 0.64703727
-0.14765349 0.01482024 0.64703315
-0.14655477 0.014820145 0.64702904
-0.14545606 0.01482005 0.64702493
-0.14435735 0.014819956 0.64702082
-0.14325868 0.014819862 0.6470167
-0.14216 0.014819768 0.64701259
-0.14106134 0.014819674 0.64700848
-0.1399627 0.01481958 0.64700437
-0.13886407 0.014819485 0.64700025
-0.13776545 0.014819391 0.64699614
-0.13666685 0.014819297 0.64699203
-0.13556826 0.014819203 0.64698792
-0.13446969 0.014819109 0.6469838
-0.13337113 0.014819015 0.64697969
-0.13227259 0.014818921 0.64697558
-0.13117406 0.014818826 0.64697146
-0.13007553 0.014818732 0.64696735
-0.12897703 0.014818638 0.64696324
-0.12787855 0.014818544 0.64695913
-0.12678006 0.01481845 0.64695501
-0.12568161 0.014818355 0.6469509
-0.12458315 0.014818261 0.64694679
-0.12348472 0.014818166 0.64694268
-0.12238631 0.014818072 0.64693856
-0.1212879 0.014817978 0.64693445
-0.1201895 0.014817884 0.64693034
-0.11909112 0.01481779 0.64692622
-0.11799276 0.014817696 0.64692211
-0.11689441 0.014817602 0.646918
-0.11579607 0.014817507 0.64691389
-0.11469775 0.014817413 0.64690977
-0.11359944 0.014817319 0.64690566
-0.11250115 0.014817225 0.64690155
-0.11140287 0.014817131 0.64689744
-0.1103046 0.014817037 0.64689332
-0.10920635 0.014816942 0.64688921
-0.10810811 0.014816848 0.6468851
-0.10700989 0.014816754 0.64688098
-0.10591168 0.01481666 0.64687687
-0.10481348 0.014816565 0.64687276
-0.1037153 0.014816471 0.64686865
-0.10261713 0.014816377 0.64686453
-0.10151897 0.014816282 0.64686042
-0.10042083 0.014816188 0.64685631
-0.099322706 0.014816094 0.6468522
-0.098224595 0.014816 0.64684808
-0.097126491 0.014815906 0.64684397
-0.09602841 0.014815812 0.64683986
-0.094930336 0.014815718 0.64683574
-0.093832284 0.014815623 0.64683163
-0.09273424 0.014815529 0.64682752
-0.091636211 0.014815435 0.64682341
-0.090538196 0.014815341 0.64681929
-0.089440189 0.014815247 0.64681518
-0.088342205 0.014815153 0.64681107
-0.087244228 0.014815059 0.64680696
-0.086146273 0.014814964 0.64680284
-0.085048325 0.01481487 0.64679873
-0.083950393 0.014814775 0.64679462
-0.082852475 0.014814681 0.6467905
-0.081754573 0.014814587 0.64678639
-0.080656692 0.014814494 0.64678234
-0.079558812 0.0148144 0.64677823
-0.078460954 0.014814306 0.64677411
-0.077363104 0.014814212 0.64677
-0.076265268 0.014814117 0.64676589
-0.075167455 0.014814023 0.64676178
-0.074069642 0.014813929 0.64675766
-0.072971851 0.014813835 0.64675355
-0.071874075 0.014813741 0.64674944
-0.070776314 0.014813647 0.64674532
-0.068341397 0.014529274 0.63432997
-0.067264728 0.014529181 0.63432592
-0.066188067 0.014529089 0.63432187
-0.065111428 0.014528997 0.63431787
-0.064034797 0.014528904 0.63431382
-0.062958181 0.014528811 0.63430977
-0.061881583 0.01452872 0.63430578
-0.060804993 0.014528627 0.63430172
-0.059728421 0.014528535 0.63429773
-0.058651861 0.014528442 0.63429368
-0.057575312 0.01452835 0.63428962
-0.056498781 0.014528258 0.63428563
-0.055422261 0.014528166 0.63428158
-0.054382075 0.014537782 0.63470143
-0.054375254 0.014829614 0.64744246
-0.054368153 0.015133403 0.66070551
-0.054360755 0.015449898 0.67452329
-0.054352373 0.015779721 0.68892294
-0.05434335 0.016123852 0.70394725
0.054318748 0.016116552 0.70362854
0.054180954 0.015729954 0.68675017
0.054049615 0.015361469 0.67066258
0.053924076 0.015009794 0.6553089
0.053804163 0.014673863 0.64064252
0.054310899 0.014518755 0.63387072
0.055386007 0.014518662 0.63386667
0.056461107 0.01451857 0.63386267
0.057536189 0.014518478 0.63385862
0.058611263 0.014518386 0.63385463
0.059686318 0.014518294 0.63385057
0.060761362 0.014518202 0.63384658
0.061836392 0.014518109 0.63384253
0.062911406 0.014518016 0.63383847
0.063986406 0.014517925 0.63383448
0.065061398 0.014517832 0.63383043
0.066136375 0.01451774 0.63382643
0.06721133 0.014517647 0.63382238
0.068286285 0.014517556 0.63381839
0.070718333 0.014801511 0.6462155
0.071814284 0.014801417 0.64621139
0.072910227 0.014801323 0.64620733
0.074006148 0.014801229 0.64620322
0.075102061 0.014801135 0.64619911
0.076197952 0.014801041 0.64619499
0.077293836 0.014800947 0.64619088
0.078389704 0.014800853 0.64618677
0.079485565 0.01480076 0.64618272
0.080581404 0.014800666 0.6461786
0.081677228 0.014800572 0.64617449
0.082773037 0.014800478 0.64617038
0.083868839 0.014800383 0.64616627
0.084964618 0.014800289 0.64616215
0.086060397 0.014800197 0.6461581
0.087156154 0.014800102 0.64615399
0.088251896 0.014800007 0.64614987
0.089347623 0.014799913 0.64614576
0.090443343 0.014799819 0.64614165
0.09153904 0.014799725 0.64613754
0.092634737 0.014799632 0.64613348
0.093730405 0.014799538 0.64612937
0.094826065 0.014799444 0.64612526
0.09592171 0.01479935 0.64612114
0.09701734 0.014799256 0.64611703
0.098112956 0.014799161 0.64611292
0.099208571 0.014799069 0.64610887
0.10030416 0.014798975 0.64610475
0.10139973 0.01479888 0.64610064
0.1024953 0.014798786 0.64609653
0.10359084 0.014798691 0.64609241
0.10468637 0.014798597 0.6460883
0.10578191 0.014798504 0.64608425
0.10687741 0.01479841 0.64608014
0.1079729 0.014798316 0.64607602
0.10906838 0.014798222 0.64607191
0.11016384 0.014798128 0.6460678
0.1112593 0.014798035 0.64606375
0.11235473 0.014797941 0.64605963
0.11345015 0.014797847 0.64605552
0.11454556 0.014797753 0.64605141
0.11564096 0.014797658 0.64604729
0.11673634 0.014797564 0.64604318
0.11783171 0.014797471 0.64603913
0.11892707 0.014797376 0.64603502
0.1200224 0.014797282 0.6460309
0.12111773 0.014797188 0.64602679
0.12221304 0.014797094 0.64602268
0.12330835 0.014797001 0.64601862
