# .PCD v0.7 - Point Cloud Data file format
VERSION 0.7
FIELDS x y z
SIZE 4 4 4
TYPE F F F
COUNT 1 1 1
WIDTH 1350
HEIGHT 1
VIEWPOINT 0 0 0 1 0 0 0
POINTS 1350
DATA ascii
0.03423522 -0.038163856 0.66157395
0.038163848 -0.038163852 0.66157401
0.042092483 -0.038163852 0.66157389
0.046021108 -0.038163848 0.66157389
0.049949747 -0.038163852 0.66157389
0.053878371 -0.038163848 0.66157377
0.05780701 -0.038163852 0.66157389
0.061735634 -0.038163844 0.66157377
0.066225499 -0.038163848 0.66157377
0.07015413 -0.038163848 0.66157383
0.074082755 -0.038163844 0.66157377
0.078011394 -0.038163848 0.66157383
0.081940025 -0.038163844 0.66157377
0.085868649 -0.038163844 0.66157383
0.089797266 -0.038163837 0.66157371
0.09428715 -0.038163837 0.66157371
0.097794838 -0.03774292 0.66157377
-0.1004608 -0.033112779 0.66157442
-0.098075561 -0.034094937 0.66157436
-0.094287239 -0.034235243 0.66157436
-0.08979737 -0.034235243 0.66157436
-0.085868716 -0.034235246 0.66157436
-0.081940077 -0.034235243 0.66157436
-0.078011453 -0.034235239 0.66157436
-0.074082814 -0.034235243 0.66157436
-0.07015419 -0.034235243 0.6615743
-0.066225536 -0.034235235 0.6615743
-0.061735678 -0.034235239 0.6615743
-0.057807043 -0.034235235 0.6615743
-0.053878412 -0.034235235 0.6615743
-0.049949773 -0.034235235 0.6615743
-0.046021137 -0.034235235 0.6615743
-0.042092506 -0.034235235 0.6615743
-0.038163871 -0.034235235 0.6615743
-0.034235232 -0.034235239 0.66157418
-0.0303066 -0.034235235 0.66157418
-0.025816733 -0.034235235 0.66157418
-0.0218881 -0.034235232 0.66157413
-0.017959466 -0.034235235 0.66157418
-0.014030831 -0.034235232 0.66157413
-0.0101022 -0.034235235 0.66157418
-0.006173566 -0.034235232 0.66157413
-0.002244933 -0.034235228 0.66157407
0.002244933 -0.034235228 0.66157418
0.006173566 -0.034235232 0.66157407
0.0101022 -0.034235228 0.66157401
0.014030831 -0.034235224 0.66157407
0.017959462 -0.034235228 0.66157395
0.021888096 -0.034235224 0.66157395
0.025816726 -0.034235228 0.66157395
0.030306593 -0.034235224 0.66157395
0.034235224 -0.034235224 0.66157395
0.038163856 -0.034235224 0.66157395
0.042092487 -0.034235224 0.66157395
0.046021115 -0.03423522 0.66157395
0.04994975 -0.034235224 0.66157395
0.053878382 -0.03423522 0.66157395
0.05780701 -0.03423522 0.66157389
0.061735641 -0.034235217 0.66157395
0.066225506 -0.03423522 0.66157389
0.070154138 -0.03423522 0.66157389
0.074082769 -0.03423522 0.66157383
0.078011394 -0.034235217 0.66157383
0.081940018 -0.03423522 0.66157383
0.085868657 -0.034235217 0.66157383
0.089797288 -0.034235213 0.66157383
0.09428715 -0.034235213 0.66157383
0.098215774 -0.034235213 0.66157383
0.10046071 -0.033673979 0.66157377
-0.10116236 -0.029885689 0.66157442
-0.098215871 -0.030306609 0.66157442
-0.094287246 -0.030306615 0.66157442
-0.08979737 -0.030306611 0.66157442
-0.085868724 -0.030306613 0.66157442
-0.081940092 -0.030306607 0.66157436
-0.078011453 -0.030306609 0.66157436
-0.074082822 -0.030306611 0.66157436
-0.07015419 -0.030306613 0.66157436
-0.066225551 -0.030306607 0.66157436
-0.061735686 -0.030306606 0.66157436
-0.057807039 -0.030306606 0.66157436
-0.053878419 -0.0303066 0.66157436
-0.049949776 -0.030306607 0.6615743
-0.046021145 -0.030306606 0.6615743
-0.042092506 -0.030306606 0.6615743
-0.038163874 -0.030306604 0.6615743
-0.034235239 -0.030306606 0.6615743
-0.030306602 -0.030306606 0.6615743
-0.025816735 -0.030306598 0.6615743
-0.021888101 -0.0303066 0.6615743
-0.017959466 -0.0303066 0.66157424
-0.014030834 -0.030306598 0.66157424
-0.010102199 -0.030306596 0.66157424
-0.0061735664 -0.030306598 0.66157418
-0.0022449333 -0.030306596 0.66157424
0.0022449333 -0.030306598 0.66157424
0.006173566 -0.030306598 0.66157418
0.010102199 -0.030306602 0.66157424
0.014030832 -0.030306598 0.66157413
0.017959462 -0.030306594 0.66157413
0.021888098 -0.030306593 0.66157401
0.025816729 -0.030306594 0.66157407
0.030306593 -0.030306593 0.66157407
0.034235228 -0.030306591 0.66157401
0.038163856 -0.030306594 0.66157407
0.042092491 -0.030306591 0.66157395
0.046021111 -0.030306591 0.66157401
0.049949754 -0.030306591 0.66157395
0.053878386 -0.030306594 0.66157401
0.057807017 -0.030306591 0.66157395
0.061735641 -0.030306589 0.66157401
0.066225521 -0.030306593 0.66157401
0.070154138 -0.030306591 0.66157389
0.074082762 -0.030306589 0.66157389
0.078011401 -0.030306591 0.66157389
0.081940033 -0.030306589 0.66157377
0.085868657 -0.030306587 0.66157389
0.089797281 -0.030306585 0.66157377
0.094287157 -0.030306583 0.66157377
0.098215789 -0.030306587 0.66157383
0.10120902 -0.030119505 0.66157383
-0.10495069 -0.024694281 0.66157454
-0.10203227 -0.025704501 0.66157442
-0.098215878 -0.025816746 0.66157442
-0.094287254 -0.02581675 0.66157442
-0.089797378 -0.025816748 0.66157442
-0.085868724 -0.025816746 0.66157442
-0.0819401 -0.025816746 0.66157442
-0.078011461 -0.025816744 0.66157442
-0.074082837 -0.025816744 0.66157442
-0.07015419 -0.025816744 0.66157442
-0.066225551 -0.025816742 0.66157442
-0.06173569 -0.025816742 0.66157442
-0.057807047 -0.025816744 0.66157436
-0.053878423 -0.025816739 0.66157436
-0.049949776 -0.025816744 0.66157436
-0.046021152 -0.025816742 0.66157436
-0.042092513 -0.025816739 0.66157436
-0.038163882 -0.025816737 0.66157436
-0.034235243 -0.025816739 0.66157436
-0.030306604 -0.025816737 0.6615743
-0.025816739 -0.025816739 0.6615743
-0.021888101 -0.025816739 0.6615743
-0.018240085 -0.026284432 0.6615743
-0.014255328 -0.027051449 0.66157424
-0.010102201 -0.027500436 0.66157418
-0.0061735674 -0.027500434 0.66157418
-0.0039286334 -0.027500434 0.66157418
0.0067348005 -0.027500434 0.66157418
0.01043894 -0.02727594 0.66157418
0.014030832 -0.0269392 0.66157418
0.018112529 -0.026480008 0.66157418
0.0218881 -0.025816731 0.66157418
0.025816731 -0.025816729 0.66157424
0.0303066 -0.025816733 0.66157424
0.034235235 -0.025816729 0.66157407
0.038163859 -0.025816731 0.66157413
0.042092498 -0.025816729 0.66157407
0.046021119 -0.025816731 0.66157407
0.049949754 -0.025816731 0.66157401
0.053878389 -0.025816727 0.66157407
0.057807028 -0.025816729 0.66157395
0.061735649 -0.025816724 0.66157407
0.066225529 -0.025816724 0.66157401
0.070154138 -0.025816726 0.66157395
0.074082777 -0.025816726 0.66157401
0.078011401 -0.025816724 0.66157395
0.081940047 -0.025816722 0.66157401
0.085868664 -0.025816726 0.66157395
0.089797288 -0.025816724 0.66157389
0.094287157 -0.025816724 0.66157401
0.098215796 -0.025816724 0.66157389
0.10203218 -0.025704479 0.66157377
0.10495058 -0.024133023 0.66157389
-0.10575245 -0.021727761 0.66157454
-0.10214452 -0.021888115 0.66157454
-0.098215878 -0.021888111 0.66157454
-0.094287269 -0.021888109 0.66157448
-0.089797378 -0.021888113 0.66157448
-0.085868746 -0.021888111 0.66157442
-0.081940107 -0.021888113 0.66157442
-0.078011468 -0.021888113 0.66157448
-0.074082829 -0.021888109 0.66157442
-0.070154198 -0.021888113 0.66157442
-0.066225566 -0.021888113 0.66157442
-0.061735693 -0.021888113 0.66157442
-0.057807054 -0.021888111 0.66157442
-0.053878427 -0.021888113 0.66157442
-0.049949784 -0.021888111 0.66157442
-0.046021152 -0.021888113 0.66157442
-0.042092517 -0.021888111 0.66157442
-0.038163882 -0.021888107 0.66157442
-0.034235246 -0.021888107 0.66157436
-0.030306607 -0.021888107 0.66157436
-0.026041234 -0.022112597 0.66157436
-0.022449337 -0.023010571 0.6615743
0.023010567 -0.023010567 0.66157418
0.026041225 -0.022112597 0.66157424
0.0303066 -0.0218881 0.66157424
0.034235232 -0.0218881 0.66157418
0.038163867 -0.0218881 0.66157418
0.042092495 -0.021888098 0.66157413
0.04602113 -0.021888098 0.66157418
0.049949761 -0.0218881 0.66157413
0.053878397 -0.021888098 0.66157413
0.057807028 -0.021888098 0.66157407
0.061735649 -0.021888094 0.66157401
0.066225521 -0.021888098 0.66157401
0.070154153 -0.021888096 0.66157401
0.074082784 -0.021888098 0.66157395
0.078011416 -0.021888096 0.66157395
0.081940047 -0.021888094 0.66157395
0.085868679 -0.021888094 0.66157395
0.089797311 -0.021888094 0.66157395
0.094287165 -0.021888094 0.66157395
0.098215804 -0.021888094 0.66157395
0.10214444 -0.021888094 0.66157395
0.10539959 -0.021663599 0.66157395
-0.10859873 -0.017117629 0.6615746
-0.10607316 -0.017959479 0.66157466
-0.10214453 -0.017959479 0.66157454
-0.0982159 -0.017959477 0.66157454
-0.094287269 -0.017959477 0.66157448
-0.089797385 -0.017959477 0.66157448
-0.085868753 -0.017959477 0.66157454
-0.081940114 -0.017959477 0.66157448
-0.078011476 -0.017959477 0.66157454
-0.074082844 -0.017959476 0.66157448
-0.070154198 -0.017959477 0.66157448
-0.066225573 -0.017959476 0.66157448
-0.061735693 -0.017959476 0.66157442
-0.057807069 -0.017959476 0.66157442
-0.053878427 -0.017959476 0.66157442
-0.049949791 -0.017959474 0.66157442
-0.04602116 -0.017959477 0.66157442
-0.042092517 -0.017959476 0.66157442
-0.038163885 -0.017959474 0.66157442
-0.034235246 -0.017959474 0.66157442
-0.031242004 -0.018894862 0.66157442
-0.0028012604 -0.01624731 0.6604175
0.003940695 -0.016325736 0.66360533
0.030867836 -0.019001758 0.66157424
0.034337278 -0.018112531 0.6615743
0.038163871 -0.01795947 0.6615743
0.042092502 -0.017959466 0.66157424
0.04602113 -0.017959464 0.66157424
0.049949765 -0.017959466 0.66157418
0.053878397 -0.017959464 0.66157424
0.057807028 -0.017959466 0.66157418
0.061735667 -0.017959464 0.66157424
0.066225529 -0.017959466 0.66157424
0.070154168 -0.017959466 0.66157413
0.074082784 -0.017959464 0.66157413
0.078011431 -0.017959466 0.66157401
0.081940055 -0.017959464 0.66157407
0.085868686 -0.017959462 0.66157395
0.089797318 -0.017959461 0.66157407
0.094287172 -0.017959462 0.66157407
0.098215818 -0.017959461 0.66157395
0.10214445 -0.017959462 0.66157401
0.10607306 -0.017959461 0.66157395
0.10831801 -0.016836995 0.66157401
-0.10930027 -0.013890536 0.66157472
-0.10607319 -0.014030844 0.66157466
-0.10214454 -0.014030844 0.66157472
-0.098215908 -0.014030844 0.66157466
-0.094287269 -0.014030843 0.66157472
-0.089797385 -0.014030841 0.66157472
-0.085868753 -0.014030842 0.66157466
-0.081940122 -0.014030841 0.66157454
-0.078011483 -0.014030842 0.6615746
-0.074082851 -0.014030841 0.66157454
-0.07015422 -0.014030842 0.6615746
-0.066225581 -0.014030841 0.66157454
-0.061735701 -0.014030841 0.66157454
-0.057807062 -0.014030842 0.66157454
-0.05387843 -0.014030841 0.66157448
-0.049949795 -0.014030842 0.66157454
-0.04602116 -0.01403084 0.66157448
-0.042092528 -0.01403084 0.66157448
-0.03831695 -0.014132883 0.66157442
-0.03498356 -0.014779151 0.66157448
-0.01632026 -0.012943655 0.66338277
-0.014006156 -0.014006156 0.66041058
0.0095682731 -0.015196668 0.66346759
0.035357703 -0.015153302 0.66157424
0.038316935 -0.014132878 0.6615743
0.042092506 -0.014030836 0.6615743
0.046021137 -0.014030836 0.6615743
0.049949765 -0.014030834 0.66157424
0.053878408 -0.014030836 0.66157424
0.057807036 -0.014030834 0.66157418
0.061735664 -0.014030836 0.66157424
0.066225529 -0.014030834 0.66157418
0.07015416 -0.014030833 0.66157413
0.074082792 -0.014030833 0.66157418
0.078011431 -0.014030831 0.66157413
0.081940055 -0.014030833 0.66157418
0.085868686 -0.014030831 0.66157407
0.089797318 -0.014030832 0.66157407
0.094287179 -0.01403083 0.66157401
0.098215818 -0.014030831 0.66157407
0.10214446 -0.014030832 0.66157401
0.10607308 -0.014030831 0.66157401
0.108767 -0.013806337 0.66157401
-0.10961327 -0.0099726934 0.66157478
-0.10607318 -0.010102209 0.66157478
-0.10214456 -0.01010221 0.66157472
-0.09821593 -0.010102209 0.66157478
-0.094287276 -0.010102208 0.66157472
-0.089797385 -0.010102208 0.66157472
-0.085868768 -0.010102208 0.66157478
-0.081940129 -0.010102207 0.66157466
-0.07801149 -0.010102208 0.66157472
-0.074082851 -0.010102208 0.66157466
-0.07015422 -0.010102208 0.66157466
-0.066225588 -0.010102207 0.66157454
-0.061735705 -0.010102206 0.66157454
-0.057807077 -0.010102208 0.66157454
-0.05387843 -0.010102207 0.66157448
-0.049949806 -0.010102208 0.66157454
-0.046021163 -0.010102206 0.66157448
-0.042194571 -0.010255271 0.66157454
-0.039473433 -0.011411752 0.66157454
0.020796839 -0.010679458 0.66256839
0.039566956 -0.010944052 0.6615743
0.042092506 -0.010102202 0.6615743
0.046021141 -0.010102199 0.6615743
0.049949776 -0.010102201 0.6615743
0.053878408 -0.010102201 0.6615743
0.057807039 -0.010102201 0.6615743
0.061735671 -0.010102201 0.66157424
0.066225536 -0.010102201 0.6615743
0.070154183 -0.0101022 0.6615743
0.074082807 -0.010102199 0.66157424
0.078011446 -0.0101022 0.66157424
0.081940062 -0.0101022 0.66157424
0.085868709 -0.0101022 0.66157418
0.08979734 -0.0101022 0.66157424
0.094287187 -0.0101022 0.66157424
0.098215818 -0.0101022 0.66157418
0.10214447 -0.0101022 0.66157424
0.10607308 -0.010102198 0.66157401
0.10976119 -0.0099418471 0.66157407
-0.11000183 -0.006173573 0.66157478
-0.1060732 -0.006173573 0.66157478
-0.10214456 -0.006173573 0.66157478
-0.098215923 -0.0061735725 0.66157478
-0.094287284 -0.006173573 0.66157478
-0.089797415 -0.006173573 0.66157478
-0.085868776 -0.006173572 0.66157478
-0.081940122 -0.006173573 0.66157478
-0.078011498 -0.0061735716 0.66157478
-0.074082859 -0.006173572 0.66157478
-0.070154227 -0.0061735716 0.66157472
-0.066225588 -0.006173572 0.66157478
-0.061735716 -0.0061735716 0.66157478
-0.057807073 -0.0061735716 0.66157466
-0.053878438 -0.0061735711 0.66157472
-0.049949806 -0.0061735702 0.66157466
-0.046021167 -0.0061735702 0.66157466
-0.043214995 -0.0067348043 0.6615746
0.026910577 -0.0067285784 0.66088963
0.042840824 -0.0069218795 0.66157436
0.046021145 -0.0061735674 0.66157436
0.049949776 -0.0061735678 0.66157436
0.053878412 -0.0061735664 0.6615743
0.057807043 -0.0061735678 0.6615743
0.061735678 -0.0061735678 0.6615743
0.066225544 -0.0061735674 0.6615743
0.070154175 -0.0061735678 0.6615743
0.074082799 -0.0061735664 0.6615743
0.078011446 -0.0061735669 0.6615743
0.081940062 -0.0061735664 0.6615743
0.085868709 -0.0061735669 0.66157424
0.08979734 -0.0061735664 0.6615743
0.094287194 -0.0061735664 0.66157424
0.098215833 -0.0061735664 0.66157418
0.10214447 -0.006173566 0.66157424
0.10607309 -0.006173566 0.66157418
0.11000172 -0.0061735664 0.66157418
0.11280789 -0.006173566 0.66157413
-0.11280802 -0.0016837018 0.66157484
-0.11000182 -0.0022449351 0.66157496
-0.10607321 -0.0022449356 0.66157484
-0.10214458 -0.0022449354 0.66157496
-0.09821593 -0.0022449356 0.66157484
-0.094287284 -0.0022449351 0.66157484
-0.089797415 -0.0022449354 0.66157496
-0.085868776 -0.0022449354 0.66157478
-0.081940159 -0.0022449354 0.66157472
-0.078011513 -0.0022449356 0.66157478
-0.074082859 -0.0022449351 0.66157472
-0.070154235 -0.0022449351 0.66157478
-0.066225588 -0.0022449354 0.66157472
-0.061735719 -0.0022449351 0.66157472
-0.057807084 -0.0022449351 0.66157478
-0.053878438 -0.0022449349 0.66157472
-0.04994981 -0.0022449351 0.66157478
-0.046582401 -0.0026020834 0.66157472
-0.031973474 -0.0016828144 0.66122621
0.046806872 -0.0024694274 0.66157436
0.04994978 -0.0022449342 0.66157436
0.053878419 -0.0022449342 0.66157436
0.057807047 -0.002244934 0.66157436
0.061735686 -0.002244934 0.66157436
0.066225544 -0.0022449337 0.66157436
0.07015419 -0.0022449337 0.66157436
0.074082822 -0.002244934 0.6615743
0.078011446 -0.0022449337 0.6615743
0.081940077 -0.002244934 0.6615743
0.085868716 -0.0022449337 0.6615743
0.089797363 -0.0022449335 0.6615743
0.094287209 -0.0022449335 0.6615743
0.098215826 -0.0022449335 0.6615743
0.10214448 -0.0022449335 0.6615743
0.10607311 -0.0022449333 0.6615743
0.11000173 -0.002244933 0.6615743
0.1130324 -0.0019081936 0.66157424
-0.11318219 0.0026190921 0.6615749
-0.11000186 0.0022449361 0.66157496
-0.10607322 0.0022449361 0.6615749
-0.10214459 0.0022449358 0.66157496
-0.098215938 0.0022449358 0.6615749
-0.094287291 0.0022449356 0.66157496
-0.089797422 0.0022449356 0.66157496
-0.085868776 0.0022449356 0.6615749
-0.081940159 0.0022449356 0.66157496
-0.078011513 0.0022449356 0.66157484
-0.074082859 0.0022449358 0.66157496
-0.070154242 0.0022449356 0.66157484
-0.066225596 0.0022449354 0.66157472
-0.061735727 0.0022449354 0.66157484
-0.057807088 0.0022449356 0.66157484
-0.053878445 0.0022449354 0.66157484
-0.049949814 0.0022449354 0.66157478
-0.047704875 0.0011224677 0.66157472
-0.034251757 0.0016845126 0.66189349
0.047704853 0.0011224672 0.66157448
0.04994978 0.0022449344 0.66157442
0.053878427 0.0022449344 0.66157442
0.057807058 0.0022449344 0.66157442
0.06173569 0.0022449342 0.66157442
0.066225551 0.0022449342 0.66157436
0.07015419 0.0022449342 0.66157436
0.074082822 0.0022449342 0.66157436
0.078011453 0.0022449342 0.66157436
0.081940085 0.0022449342 0.66157436
0.085868724 0.0022449342 0.66157436
0.089797363 0.0022449342 0.66157436
0.094287239 0.0022449342 0.6615743
0.098215856 0.0022449342 0.66157436
0.10214448 0.0022449337 0.6615743
0.10607313 0.0022449337 0.6615743
0.11000177 0.002244934 0.6615743
0.11336915 0.0022449337 0.6615743
-0.11336928 0.0061735739 0.66157502
-0.11000186 0.0061735739 0.6615749
-0.10607322 0.0061735739 0.6615749
-0.1021446 0.0061735739 0.6615749
-0.098215953 0.0061735734 0.6615749
-0.094287299 0.0061735734 0.6615749
-0.089797437 0.0061735734 0.6615749
-0.085868791 0.0061735734 0.6615749
-0.081940167 0.0061735734 0.6615749
-0.07801152 0.0061735734 0.6615749
-0.074082889 0.0061735734 0.6615749
-0.070154242 0.006173573 0.66157484
-0.066225596 0.0061735734 0.66157484
-0.061735731 0.0061735734 0.66157484
-0.057807088 0.0061735734 0.66157484
-0.053878456 0.0061735734 0.66157484
-0.050623298 0.0059490791 0.66157484
0.050511029 0.0061735697 0.66157454
0.053878427 0.0061735702 0.66157442
0.057807062 0.0061735697 0.66157448
0.061735693 0.0061735697 0.66157442
0.066225566 0.0061735697 0.66157442
0.07015419 0.0061735697 0.66157442
0.074082829 0.0061735683 0.66157442
0.078011468 0.0061735692 0.66157442
0.081940107 0.0061735683 0.66157442
0.085868731 0.0061735692 0.66157436
0.08979737 0.0061735692 0.66157436
0.094287224 0.0061735683 0.66157436
0.098215871 0.0061735688 0.66157436
0.10214449 0.0061735683 0.66157436
0.10607313 0.0061735688 0.66157436
0.11000177 0.0061735678 0.66157436
0.11336916 0.0061735683 0.66157436
-0.1139305 0.010102213 0.66157502
-0.11000189 0.010102213 0.66157514
-0.10607325 0.010102213 0.66157502
-0.1021446 0.010102211 0.66157502
-0.098215945 0.010102212 0.6615749
-0.094287306 0.010102211 0.66157502
-0.089797452 0.010102213 0.66157502
-0.085868806 0.010102211 0.6615749
-0.081940174 0.010102212 0.66157496
-0.07801152 0.010102211 0.6615749
-0.074082874 0.010102211 0.66157496
-0.070154242 0.010102211 0.6615749
-0.066225611 0.010102211 0.66157496
-0.061735742 0.010102213 0.66157496
-0.057807099 0.01010221 0.6615749
-0.053878464 0.010102211 0.66157496
-0.051072288 0.009540976 0.6615749
-0.038659737 0.0095248623 0.66045749
0.038862869 0.010701369 0.66392779
0.051072262 0.0089797396 0.6615746
0.05387843 0.010102208 0.66157448
0.057807069 0.010102207 0.66157454
0.061735697 0.010102207 0.66157448
0.066225573 0.010102207 0.66157442
0.070154198 0.010102207 0.66157442
0.074082844 0.010102205 0.66157442
0.078011461 0.010102205 0.66157442
0.0819401 0.010102205 0.66157442
0.085868724 0.010102205 0.66157442
0.089797378 0.010102205 0.66157442
0.094287254 0.010102203 0.66157442
0.098215871 0.010102203 0.66157442
0.10214449 0.010102204 0.66157436
0.10607314 0.010102202 0.66157436
0.11000179 0.010102202 0.66157436
0.11382835 0.010255266 0.66157436
-0.11617547 0.014592087 0.66157508
-0.11393053 0.014030852 0.66157508
-0.11000188 0.014030851 0.66157514
-0.10607325 0.014030852 0.66157508
-0.1021446 0.014030852 0.66157514
-0.098215967 0.014030852 0.66157508
-0.094287328 0.014030852 0.66157502
-0.089797445 0.014030851 0.66157496
-0.085868821 0.014030852 0.66157502
-0.081940174 0.014030851 0.66157496
-0.078011535 0.01403085 0.66157502
-0.074082904 0.014030851 0.66157496
-0.07015425 0.01403085 0.66157502
-0.066225618 0.014030851 0.6615749
-0.061735746 0.01403085 0.6615749
-0.057807107 0.01403085 0.6615749
-0.053878468 0.01403085 0.6615749
-0.039902035 0.014050012 0.66247851
0.039881609 0.012919394 0.66213936
0.053878438 0.014030843 0.6615746
0.057807069 0.014030844 0.6615746
0.061735701 0.014030843 0.66157454
0.066225581 0.014030843 0.66157454
0.07015422 0.014030842 0.6615746
0.074082844 0.014030841 0.66157454
0.078011476 0.014030842 0.66157454
0.081940107 0.014030843 0.66157448
0.085868739 0.014030842 0.66157454
0.089797378 0.014030841 0.66157442
0.094287246 0.01403084 0.66157442
0.098215878 0.014030839 0.66157442
0.10214451 0.01403084 0.66157442
0.10607314 0.014030839 0.66157442
0.11000179 0.01403084 0.66157442
0.11393041 0.014030837 0.66157442
-0.11639997 0.018296232 0.6615752
-0.11393055 0.017959494 0.66157526
-0.11000191 0.017959494 0.66157526
-0.10607326 0.017959492 0.6615752
-0.10214461 0.017959492 0.6615752
-0.098215967 0.017959492 0.66157514
-0.094287321 0.01795949 0.6615752
-0.089797467 0.01795949 0.6615752
-0.085868828 0.017959492 0.66157514
-0.081940182 0.017959489 0.6615752
-0.078011543 0.017959492 0.66157508
-0.074082896 0.017959492 0.66157514
-0.070154257 0.017959492 0.66157502
-0.066225618 0.01795949 0.66157514
-0.061735746 0.01795949 0.66157502
-0.057807103 0.01795949 0.66157496
-0.054267023 0.017829973 0.66157496
-0.041030239 0.019672032 0.66254634
0.040932823 0.019625327 0.66097331
0.054266989 0.017829964 0.66157472
0.057807077 0.017959479 0.66157472
0.061735708 0.017959479 0.66157466
0.066225588 0.017959479 0.66157466
0.070154212 0.017959479 0.6615746
0.074082851 0.017959479 0.66157454
0.078011483 0.017959481 0.66157466
0.081940122 0.017959477 0.66157448
0.085868753 0.017959477 0.66157454
0.089797378 0.017959477 0.66157448
0.094287261 0.017959479 0.66157448
0.098215885 0.017959477 0.66157454
0.1021445 0.017959474 0.66157448
0.10607314 0.017959477 0.66157448
0.11000179 0.017959474 0.66157448
0.11393043 0.017959477 0.66157442
0.11617535 0.019081943 0.66157448
-0.11645609 0.021607518 0.6615752
-0.11393055 0.021888133 0.66157526
-0.11000191 0.021888131 0.66157526
-0.10607326 0.021888133 0.66157526
-0.10214462 0.021888135 0.66157526
-0.09821599 0.021888135 0.6615752
-0.094287328 0.021888135 0.66157526
-0.089797467 0.021888131 0.6615752
-0.085868828 0.021888131 0.66157514
-0.081940182 0.021888131 0.6615752
-0.078011543 0.021888131 0.66157514
-0.074082904 0.021888129 0.66157514
-0.070154272 0.021888129 0.66157508
-0.066225626 0.021888131 0.66157514
-0.061735749 0.021888129 0.66157514
-0.057807114 0.021888129 0.66157508
-0.054580014 0.02174782 0.66157508
0.04107178 0.020817203 0.66321713
0.054439679 0.021888118 0.66157478
0.05780708 0.021888118 0.66157478
0.061735719 0.021888116 0.66157478
0.066225588 0.021888116 0.66157478
0.07015422 0.021888115 0.66157466
0.074082851 0.021888116 0.66157472
0.078011498 0.021888118 0.66157466
0.081940122 0.021888116 0.66157472
0.085868768 0.021888116 0.66157466
0.089797385 0.021888116 0.6615746
0.094287269 0.021888115 0.66157466
0.098215893 0.021888115 0.6615746
0.10214454 0.021888113 0.66157454
0.10607317 0.021888115 0.6615746
0.1100018 0.021888113 0.66157454
0.11393043 0.021888113 0.66157454
0.11617536 0.021888113 0.66157454
-0.11617549 0.025816776 0.66157532
-0.11393056 0.025816776 0.66157532
-0.11000192 0.025816774 0.66157526
-0.10607326 0.025816778 0.66157526
-0.10214461 0.025816776 0.66157526
-0.098215997 0.025816774 0.66157526
-0.094287351 0.025816776 0.66157526
-0.089797474 0.025816776 0.66157526
-0.085868835 0.025816774 0.66157526
-0.081940189 0.025816768 0.66157526
-0.078011565 0.02581677 0.66157526
-0.074082904 0.02581677 0.66157526
-0.070154265 0.02581677 0.6615752
-0.06622564 0.025816772 0.6615752
-0.061735753 0.025816772 0.6615752
-0.057807118 0.02581677 0.6615752
-0.054541755 0.025969835 0.66157514
0.054664183 0.025592262 0.66157478
0.057807084 0.025816755 0.66157478
0.061735716 0.025816755 0.66157472
0.066225588 0.025816757 0.66157472
0.070154227 0.025816755 0.66157478
0.074082859 0.025816757 0.66157472
0.078011505 0.025816755 0.66157478
0.081940137 0.025816754 0.66157466
0.085868768 0.025816754 0.66157478
0.089797385 0.025816757 0.66157472
0.094287276 0.025816755 0.66157466
0.098215908 0.025816752 0.66157472
0.10214455 0.025816754 0.66157466
0.10607317 0.025816752 0.66157466
0.1100018 0.025816752 0.66157448
0.11393046 0.025816752 0.66157454
0.11617538 0.02581675 0.6615746
-0.1161755 0.02974542 0.66157532
-0.11393058 0.030306652 0.66157532
-0.11000192 0.030306648 0.66157532
-0.10607327 0.030306654 0.66157532
-0.10214463 0.030306647 0.66157532
-0.098215997 0.03030665 0.66157526
-0.094287366 0.030306652 0.66157532
-0.089797489 0.030306647 0.66157526
-0.085868835 0.030306647 0.66157526
-0.081940189 0.030306645 0.66157526
-0.078011565 0.030306647 0.66157526
-0.074082911 0.030306643 0.66157526
-0.070154272 0.030306647 0.66157526
-0.06622564 0.030306645 0.66157526
-0.061735753 0.030306643 0.66157526
-0.057807118 0.030306647 0.66157526
-0.05443972 0.030306645 0.66157526
-0.040994912 0.029761225 0.66197592
0.040924657 0.030833647 0.66084146
0.054439683 0.030306632 0.66157484
0.057807092 0.03030663 0.66157484
0.061735727 0.030306632 0.66157478
0.066225588 0.030306632 0.66157472
0.070154235 0.03030663 0.66157478
0.074082859 0.030306628 0.66157472
0.078011505 0.030306628 0.66157478
0.081940144 0.03030663 0.66157472
0.085868776 0.030306628 0.66157478
0.089797407 0.030306626 0.66157472
0.094287276 0.030306626 0.66157472
0.098215915 0.030306624 0.66157478
0.10214455 0.030306626 0.66157472
0.10607318 0.030306622 0.66157472
0.11000181 0.030306624 0.66157472
0.11393046 0.030306624 0.66157478
0.11654955 0.029932469 0.66157466
-0.11393058 0.034235295 0.66157538
-0.11000193 0.034235295 0.66157538
-0.10607329 0.034235299 0.66157538
-0.10214464 0.034235295 0.66157538
-0.098216012 0.034235299 0.66157532
-0.094287366 0.034235295 0.66157532
-0.089797489 0.034235295 0.66157532
-0.085868843 0.034235295 0.66157532
-0.081940211 0.034235295 0.66157532
-0.078011565 0.034235291 0.66157532
-0.074082918 0.034235295 0.66157526
-0.070154279 0.034235291 0.66157526
-0.06622564 0.034235291 0.66157526
-0.06173576 0.034235295 0.66157526
-0.057807129 0.034235287 0.66157526
-0.054031547 0.034337331 0.66157526
0.039991572 0.03548548 0.66396505
0.054031525 0.034337312 0.66157484
0.057807095 0.034235273 0.66157484
0.061735738 0.034235269 0.66157484
0.066225596 0.034235273 0.66157484
0.070154235 0.034235269 0.66157484
0.074082874 0.034235273 0.66157484
0.078011513 0.034235269 0.66157484
0.081940144 0.034235269 0.66157484
0.085868776 0.034235265 0.66157484
0.089797415 0.034235265 0.66157478
0.094287284 0.034235265 0.66157478
0.09821593 0.034235265 0.66157478
0.10214456 0.034235269 0.66157478
0.10607319 0.034235265 0.66157478
0.11000182 0.034235265 0.66157478
0.11393046 0.034235261 0.66157478
0.11617539 0.034235261 0.66157472
-0.11393058 0.038163941 0.66157538
-0.11000193 0.038163941 0.66157538
-0.1060733 0.038163941 0.66157538
-0.10214466 0.038163945 0.66157538
-0.09821602 0.038163934 0.66157538
-0.094287388 0.038163938 0.66157538
-0.089797497 0.038163938 0.66157538
-0.085868843 0.03816393 0.66157532
-0.081940204 0.038163938 0.66157532
-0.078011565 0.038163934 0.66157532
-0.074082933 0.038163938 0.66157532
-0.070154287 0.03816393 0.66157532
-0.066225648 0.03816393 0.66157532
-0.06173576 0.038163926 0.66157532
-0.057807133 0.038163926 0.66157532
-0.053878486 0.03816393 0.66157526
0.039800562 0.036437135 0.66079378
0.051072296 0.039847612 0.66157496
0.05387846 0.038163908 0.66157496
0.057807099 0.038163904 0.6615749
0.061735742 0.038163908 0.66157496
0.066225596 0.038163904 0.66157496
0.070154242 0.038163904 0.66157484
0.074082874 0.038163904 0.66157496
0.078011513 0.038163904 0.66157484
0.081940159 0.038163904 0.66157496
0.085868776 0.038163904 0.66157484
0.089797437 0.038163904 0.66157496
0.094287284 0.0381639 0.66157484
0.09821593 0.038163904 0.66157484
0.10214458 0.0381639 0.66157496
0.1060732 0.038163904 0.66157484
0.11000182 0.0381639 0.66157478
0.11393046 0.0381639 0.66157484
-0.11360989 0.041932233 0.6615755
-0.11000195 0.042092588 0.66157544
-0.10607331 0.042092584 0.6615755
-0.10214465 0.042092588 0.66157544
-0.098216027 0.04209258 0.66157544
-0.094287388 0.04209258 0.66157538
-0.089797504 0.04209258 0.66157538
-0.085868865 0.042092577 0.66157538
-0.081940226 0.04209258 0.66157538
-0.078011572 0.042092577 0.66157538
-0.074082933 0.042092577 0.66157538
-0.070154294 0.042092577 0.66157538
-0.066225648 0.042092573 0.66157532
-0.061735775 0.042092573 0.66157532
-0.05780714 0.042092577 0.66157532
-0.05387849 0.042092577 0.66157532
-0.051072318 0.042092573 0.66157532
-0.037572283 0.042058524 0.66104019
0.03768225 0.042181626 0.66297495
0.051072299 0.042092551 0.66157502
0.053878468 0.042092558 0.66157496
0.057807107 0.042092551 0.6615749
0.061735746 0.042092551 0.6615749
0.066225611 0.042092551 0.6615749
0.07015425 0.042092547 0.6615749
0.074082881 0.042092551 0.6615749
0.07801152 0.042092547 0.6615749
0.081940167 0.042092547 0.6615749
0.085868791 0.042092554 0.6615749
0.089797437 0.042092547 0.6615749
0.094287299 0.042092551 0.6615749
0.098215938 0.042092547 0.66157484
0.10214459 0.042092547 0.66157484
0.1060732 0.042092543 0.66157484
0.11000184 0.042092543 0.66157484
0.11360978 0.041932192 0.66157484
-0.11336937 0.046021227 0.66157562
-0.11000195 0.046021227 0.6615755
-0.10607331 0.046021223 0.6615755
-0.10214469 0.046021227 0.66157544
-0.098216049 0.046021223 0.6615755
-0.094287395 0.046021223 0.66157544
-0.089797504 0.046021223 0.66157544
-0.085868865 0.046021223 0.66157544
-0.081940219 0.046021223 0.66157538
-0.07801158 0.046021223 0.66157538
-0.074082941 0.046021223 0.66157538
-0.070154302 0.046021223 0.66157538
-0.066225648 0.046021219 0.66157538
-0.061735786 0.046021223 0.66157538
-0.057807144 0.046021219 0.66157538
-0.053878494 0.046021219 0.66157538
-0.050174348 0.046245713 0.66157532
-0.0365096 0.044373207 0.66210794
-0.035443585 0.046695519 0.66318119
0.036474284 0.044330284 0.66146749
0.05019927 0.046457715 0.66157508
0.053878479 0.046021201 0.6615752
0.057807103 0.04602119 0.66157496
0.061735746 0.046021197 0.66157508
0.066225626 0.04602119 0.66157502
0.07015425 0.046021193 0.6615749
0.074082896 0.046021193 0.66157502
0.07801152 0.04602119 0.6615749
0.081940167 0.046021197 0.66157502
0.085868806 0.04602119 0.6615749
0.089797445 0.046021193 0.66157496
0.094287299 0.046021178 0.66157496
0.098215945 0.04602119 0.6615749
0.10214459 0.046021178 0.66157496
0.10607322 0.046021182 0.6615749
0.11000185 0.046021178 0.66157496
0.1132891 0.045780655 0.6615749
-0.11325713 0.04972538 0.66157562
-0.11000198 0.049949881 0.66157568
-0.10607333 0.049949877 0.66157562
-0.10214469 0.049949881 0.66157556
-0.098216049 0.049949877 0.66157556
-0.094287395 0.049949881 0.66157556
-0.089797504 0.04994987 0.6615755
-0.08586888 0.04994987 0.66157556
-0.081940234 0.049949873 0.6615755
-0.078011587 0.04994987 0.6615755
-0.074082963 0.04994987 0.66157544
-0.070154309 0.049949862 0.6615755
-0.06622567 0.04994987 0.66157538
-0.06173579 0.049949866 0.66157538
-0.057807148 0.049949866 0.66157538
-0.053878501 0.049949866 0.66157538
-0.049949858 0.049949862 0.66157538
-0.047424305 0.050230481 0.66157544
-0.033111483 0.049949929 0.66156524
0.033222217 0.050114866 0.6637609
0.047424283 0.050230451 0.66157508
0.04994984 0.04994984 0.66157508
0.053878475 0.049949829 0.66157514
0.057807114 0.04994984 0.66157508
0.061735749 0.049949829 0.66157514
0.066225626 0.049949829 0.66157514
0.070154257 0.049949832 0.66157508
0.074082904 0.049949829 0.66157514
0.078011535 0.049949829 0.66157502
0.081940167 0.049949829 0.66157508
0.085868821 0.049949832 0.66157502
0.089797445 0.049949829 0.66157496
0.094287314 0.049949829 0.6615749
0.098215953 0.049949829 0.66157496
0.10214459 0.049949829 0.6615749
0.10607322 0.049949825 0.66157496
0.11000187 0.049949825 0.6615749
0.11280803 0.049949825 0.66157496
-0.11280815 0.053878523 0.66157568
-0.11000198 0.053878527 0.66157568
-0.10607335 0.05387852 0.66157573
-0.1021447 0.053878516 0.66157562
-0.098216057 0.05387852 0.66157573
-0.094287403 0.05387852 0.66157562
-0.089797527 0.053878516 0.66157562
-0.085868895 0.053878516 0.66157562
-0.081940234 0.053878516 0.66157562
-0.078011595 0.05387852 0.6615755
-0.074082963 0.053878523 0.66157544
-0.070154309 0.053878512 0.66157562
-0.066225663 0.053878505 0.66157544
-0.061735801 0.053878512 0.66157544
-0.057807148 0.053878512 0.6615755
-0.053878501 0.053878501 0.66157544
-0.04994987 0.053878505 0.66157544
-0.046488922 0.05415912 0.66157544
-0.030390639 0.052903086 0.66341555
0.027569829 0.055702306 0.66324359
0.028726656 0.05463697 0.66397232
0.046323411 0.054180689 0.66157526
0.04994984 0.053878486 0.66157526
0.053878486 0.053878482 0.66157526
0.057807121 0.053878482 0.66157526
0.061735753 0.053878486 0.6615752
0.06622564 0.053878482 0.6615752
0.070154265 0.053878482 0.66157514
0.074082911 0.053878482 0.6615752
0.078011543 0.053878482 0.66157514
0.081940174 0.053878482 0.6615752
0.085868828 0.053878482 0.66157514
0.089797467 0.053878482 0.6615752
0.094287321 0.053878482 0.66157508
0.09821596 0.053878475 0.66157508
0.1021446 0.053878479 0.66157502
0.10607325 0.053878475 0.66157502
0.11000188 0.053878479 0.66157502
0.11280804 0.052194767 0.66157502
-0.11280817 0.056684699 0.66157573
-0.110002 0.057807162 0.66157573
-0.10607335 0.057807174 0.66157573
-0.10214471 0.057807166 0.66157573
-0.098216057 0.057807166 0.66157573
-0.094287403 0.057807162 0.66157573
-0.089797549 0.057807162 0.66157573
-0.085868895 0.057807166 0.66157573
-0.081940249 0.057807162 0.66157573
-0.078011602 0.057807162 0.66157568
-0.074082963 0.057807151 0.66157573
-0.070154317 0.057807162 0.66157562
-0.066225685 0.057807159 0.66157568
-0.061735809 0.057807151 0.66157562
-0.057807155 0.057807155 0.66157556
-0.053878516 0.057807151 0.66157556
-0.04994987 0.057807148 0.66157556
-0.046021227 0.057807148 0.6615755
-0.042466745 0.058181304 0.66157556
-0.024076179 0.058790669 0.66001558
0.025264641 0.057825264 0.66179216
0.042934418 0.058087744 0.66157526
0.046021212 0.057807133 0.66157526
0.049949847 0.057807129 0.66157526
0.053878486 0.057807129 0.66157526
0.057807129 0.057807121 0.66157526
0.061735753 0.057807129 0.66157526
0.06622564 0.057807118 0.66157526
0.070154272 0.057807121 0.66157526
0.074082904 0.057807121 0.66157526
0.07801155 0.057807114 0.66157514
0.081940182 0.057807129 0.66157526
0.085868828 0.057807121 0.66157514
0.08979746 0.057807121 0.6615752
0.094287328 0.057807107 0.66157514
0.098215975 0.057807114 0.66157508
0.10214461 0.057807107 0.66157514
0.10607325 0.057807114 0.66157508
0.10984883 0.057705067 0.66157514
-0.1095343 0.061455194 0.66157579
-0.10607337 0.061735809 0.66157579
-0.10214472 0.061735813 0.66157568
-0.098216057 0.061735813 0.66157573
-0.094287418 0.061735809 0.66157568
-0.089797541 0.061735809 0.66157568
-0.085868895 0.061735809 0.66157573
-0.081940264 0.061735809 0.66157568
-0.078011625 0.061735809 0.66157573
-0.074082971 0.061735809 0.66157568
-0.070154317 0.061735809 0.66157573
-0.066225678 0.061735805 0.66157568
-0.061735805 0.061735809 0.66157562
-0.057807159 0.061735809 0.66157573
-0.053878523 0.061735805 0.66157562
-0.049949881 0.061735805 0.66157568
-0.046021231 0.061735805 0.66157562
-0.042092592 0.061735805 0.66157562
-0.039099339 0.062671192 0.66157562
-0.021878932 0.060026813 0.66129708
-0.018565942 0.061890669 0.66322935
0.015157464 0.063436791 0.66175598
0.018563069 0.061874062 0.66306126
0.039099324 0.06267117 0.66157532
0.042092573 0.061735768 0.66157532
0.046021219 0.06173576 0.66157532
0.049949851 0.061735764 0.66157532
0.053878486 0.06173576 0.66157532
0.057807133 0.061735764 0.66157526
0.061735757 0.061735757 0.66157526
0.066225648 0.061735757 0.66157526
0.070154279 0.061735764 0.66157526
0.074082926 0.061735753 0.66157526
0.078011565 0.06173576 0.66157526
0.081940182 0.061735757 0.66157526
0.085868835 0.06173576 0.66157526
0.089797482 0.061735753 0.66157526
0.094287343 0.061735757 0.66157526
0.098215975 0.06173576 0.66157526
0.10214461 0.061735757 0.66157526
0.10607326 0.06173576 0.6615752
0.10944068 0.061735753 0.6615752
-0.10859893 0.065383852 0.66157585
-0.10607337 0.066225708 0.66157579
-0.10214472 0.066225708 0.66157591
-0.098216064 0.0662257 0.66157579
-0.094287425 0.0662257 0.66157579
-0.089797549 0.0662257 0.66157568
-0.085868903 0.0662257 0.66157579
-0.081940271 0.0662257 0.66157568
-0.078011625 0.0662257 0.66157579
-0.074082971 0.0662257 0.66157568
-0.070154332 0.066225693 0.66157573
-0.066225693 0.066225685 0.66157568
-0.061735809 0.066225693 0.66157568
-0.057807162 0.066225693 0.66157573
-0.053878523 0.066225685 0.66157568
-0.049949881 0.066225685 0.66157573
-0.046021234 0.066225693 0.66157568
-0.042092595 0.06622567 0.66157573
-0.038163949 0.066225663 0.66157562
-0.034609463 0.067161076 0.66157562
-0.01289764 0.064488195 0.66102439
-0.011815701 0.064705029 0.66324699
-0.0067399153 0.065723367 0.66216934
-0.0016822813 0.066730492 0.6610167
0.0067427014 0.065746747 0.66240484
0.0084041739 0.065552562 0.66044837
0.012894996 0.064474978 0.66088891
0.031990364 0.067909367 0.6615755
0.034395654 0.067107596 0.66157538
0.038163934 0.066225655 0.66157538
0.04209258 0.066225648 0.66157538
0.046021219 0.066225648 0.66157532
0.049949855 0.066225648 0.66157532
0.05387849 0.066225648 0.66157532
0.057807144 0.066225648 0.66157532
0.061735768 0.066225648 0.66157532
0.066225648 0.066225648 0.66157532
0.070154287 0.066225648 0.66157532
0.074082918 0.066225648 0.66157532
0.078011565 0.066225648 0.66157532
0.081940196 0.066225648 0.66157532
0.085868835 0.06622564 0.66157526
0.089797489 0.066225648 0.66157526
0.094287366 0.066225648 0.66157526
0.098215997 0.06622564 0.66157526
0.10214462 0.066225648 0.66157526
0.10607326 0.06622564 0.66157526
0.10879926 0.065985106 0.66157526
-0.10575267 0.069993995 0.66157585
-0.10214473 0.070154354 0.66157585
-0.098216094 0.070154347 0.66157585
-0.094287448 0.070154347 0.66157585
-0.089797556 0.070154347 0.66157585
-0.08586891 0.070154339 0.66157585
-0.081940271 0.070154347 0.66157579
-0.078011632 0.070154339 0.66157579
-0.074082978 0.070154332 0.66157579
-0.070154339 0.070154339 0.66157579
-0.0662257 0.070154332 0.66157579
-0.061735809 0.070154332 0.66157579
-0.057807166 0.070154332 0.66157573
-0.053878531 0.070154332 0.66157573
-0.049949884 0.070154339 0.66157573
-0.046021242 0.070154324 0.66157573
-0.042092599 0.070154324 0.66157573
-0.038163956 0.070154317 0.66157573
-0.03423531 0.070154317 0.66157573
-0.030531162 0.07037881 0.66157573
-0.026939262 0.071276791 0.66157568
0.027500492 0.071276784 0.66157556
0.030743174 0.070403747 0.66157556
0.034235299 0.070154309 0.6615755
0.038163941 0.070154309 0.66157538
0.04209258 0.070154309 0.66157544
0.046021219 0.070154309 0.66157538
0.049949866 0.070154309 0.66157538
0.053878497 0.070154302 0.66157538
0.05780714 0.070154294 0.66157538
0.061735779 0.070154302 0.66157538
0.066225648 0.070154302 0.66157538
0.070154294 0.070154302 0.66157538
0.074082926 0.070154294 0.66157538
0.078011565 0.070154287 0.66157532
0.081940211 0.070154287 0.66157532
0.08586885 0.070154279 0.66157532
0.089797489 0.070154287 0.66157532
0.094287358 0.070154287 0.66157532
0.098215997 0.070154279 0.66157532
0.10214463 0.070154287 0.66157532
0.10607327 0.070154279 0.66157526
0.10831821 0.069031812 0.66157526
-0.10495091 0.073521763 0.66157591
-0.10214473 0.074082986 0.66157597
-0.098216087 0.074082993 0.66157585
-0.09428744 0.074082986 0.66157591
-0.089797579 0.074082986 0.66157591
-0.085868925 0.074082986 0.66157585
-0.081940286 0.074082986 0.66157591
-0.078011632 0.074082978 0.66157585
-0.074082978 0.074082978 0.66157591
-0.070154347 0.074082978 0.66157585
-0.066225708 0.074082978 0.66157585
-0.061735816 0.074082978 0.66157568
-0.057807174 0.074082978 0.66157579
-0.053878538 0.074082971 0.66157568
-0.049949888 0.074082978 0.66157579
-0.046021238 0.074082971 0.66157568
-0.042092603 0.074082971 0.66157579
-0.03816396 0.074082971 0.66157568
-0.034235317 0.074082971 0.66157573
-0.030306669 0.074082971 0.66157568
-0.025929041 0.074195221 0.66157568
-0.022048503 0.074964918 0.66157573
-0.019081976 0.075766675 0.66157568
0.018801358 0.075486049 0.66157562
0.022028456 0.07478451 0.66157562
0.025929037 0.074195214 0.6615755
0.030306665 0.074082963 0.66157544
0.034235302 0.074082963 0.6615755
0.038163949 0.074082963 0.66157544
0.042092588 0.074082963 0.6615755
0.046021223 0.074082963 0.66157544
0.04994987 0.074082948 0.66157538
0.053878501 0.074082956 0.66157544
0.057807148 0.074082948 0.66157538
0.061735794 0.074082941 0.66157538
0.066225648 0.074082941 0.66157538
0.070154302 0.074082941 0.66157538
0.074082941 0.074082941 0.66157538
0.078011572 0.074082926 0.66157538
0.081940211 0.074082933 0.66157538
0.085868843 0.074082933 0.66157532
0.089797497 0.074082933 0.66157532
0.094287381 0.074082933 0.66157532
0.098216005 0.074082918 0.66157532
0.10214464 0.074082933 0.66157532
0.10523143 0.073241077 0.66157532
-0.101808 0.077899389 0.66157591
-0.098216109 0.078011639 0.66157597
-0.094287455 0.078011639 0.66157591
-0.089797564 0.078011639 0.66157591
-0.085868925 0.078011639 0.66157591
-0.081940293 0.078011639 0.66157585
-0.078011639 0.078011632 0.66157585
-0.074082993 0.078011639 0.66157585
-0.070154354 0.078011632 0.66157585
-0.066225708 0.078011632 0.66157585
-0.061735824 0.078011632 0.66157585
-0.057807181 0.078011632 0.66157585
-0.053878542 0.078011632 0.66157579
-0.049949892 0.078011632 0.66157585
-0.046021242 0.078011632 0.66157579
-0.042092606 0.078011632 0.66157579
-0.03816396 0.078011632 0.66157579
-0.034235314 0.078011625 0.66157579
-0.030306669 0.078011625 0.66157579
-0.025816796 0.078011625 0.66157573
-0.021888152 0.078011625 0.66157573
-0.017959509 0.078011625 0.66157573
-0.014030867 0.078011625 0.66157573
-0.010102224 0.078572854 0.66157573
-0.0064541982 0.078853466 0.66157568
-0.0022449384 0.079134077 0.66157568
0.0022449384 0.079134077 0.66157568
0.0061735804 0.078572839 0.66157573
0.010102222 0.078572847 0.66157573
0.014191218 0.078332312 0.66157568
0.017959507 0.07801161 0.66157568
0.021888148 0.078011602 0.66157568
0.025816791 0.078011602 0.66157568
0.030306667 0.07801161 0.66157568
0.03423531 0.078011602 0.66157562
0.038163949 0.07801161 0.66157562
0.042092592 0.078011595 0.66157556
0.046021227 0.078011595 0.6615755
0.04994987 0.078011587 0.66157556
0.053878505 0.07801158 0.6615755
0.057807148 0.07801158 0.6615755
0.061735794 0.078011587 0.66157544
0.066225655 0.07801158 0.66157538
0.070154309 0.07801158 0.66157544
0.074082941 0.07801158 0.66157538
0.07801158 0.07801158 0.66157538
0.081940226 0.07801158 0.66157538
0.085868865 0.07801158 0.66157538
0.089797497 0.07801158 0.66157538
0.094287388 0.07801158 0.66157538
0.09821602 0.078011572 0.66157538
0.10180791 0.077899329 0.66157538
-0.1008352 0.08156614 0.66157603
-0.098216116 0.081940293 0.66157609
-0.09428747 0.081940293 0.66157615
-0.089797586 0.081940293 0.66157609
-0.085868947 0.081940293 0.66157603
-0.081940286 0.081940293 0.66157609
-0.078011639 0.081940293 0.66157591
-0.074082986 0.081940286 0.66157597
-0.070154361 0.081940286 0.66157591
-0.066225708 0.081940286 0.66157597
-0.06173582 0.081940293 0.66157597
-0.057807188 0.081940286 0.66157585
-0.053878542 0.081940286 0.66157591
-0.049949888 0.081940286 0.66157585
-0.046021257 0.081940286 0.66157591
-0.042092606 0.081940286 0.66157585
-0.03816396 0.081940286 0.66157591
-0.034235325 0.081940278 0.66157585
-0.030306675 0.081940278 0.66157591
-0.025816796 0.081940286 0.66157579
-0.021888154 0.081940271 0.66157579
-0.017959509 0.081940271 0.66157568
-0.014030867 0.081940271 0.66157579
-0.010102225 0.081940271 0.66157568
-0.0061735814 0.081940256 0.66157573
-0.0022449386 0.081940271 0.66157568
0.0022449386 0.081940256 0.66157568
0.0061735809 0.081940256 0.66157573
0.010102224 0.081940264 0.66157568
0.014030866 0.081940256 0.66157573
0.017959507 0.081940249 0.66157568
0.02188815 0.081940241 0.66157573
0.025816794 0.081940256 0.66157568
0.030306669 0.081940264 0.66157568
0.03423531 0.081940241 0.66157573
0.038163956 0.081940249 0.66157568
0.042092592 0.081940241 0.66157568
0.046021231 0.081940249 0.66157562
0.049949873 0.081940234 0.66157562
0.053878512 0.081940249 0.66157556
0.057807151 0.081940241 0.66157556
0.061735801 0.081940234 0.66157544
0.066225663 0.081940226 0.66157544
0.070154309 0.081940234 0.6615755
0.074082956 0.081940219 0.66157544
0.07801158 0.081940234 0.66157544
0.081940219 0.081940219 0.66157544
0.085868873 0.081940226 0.66157544
0.089797504 0.081940219 0.66157538
0.094287388 0.081940219 0.66157544
0.098216027 0.081940226 0.66157538
0.10074158 0.08109837 0.66157544
-0.098075807 0.085728645 0.66157609
-0.094287477 0.085868955 0.66157609
-0.089797594 0.085868947 0.66157609
-0.085868947 0.085868947 0.66157603
-0.081940293 0.085868947 0.66157609
-0.078011647 0.085868947 0.66157603
-0.074083008 0.085868947 0.66157609
-0.070154361 0.085868947 0.66157603
-0.066225715 0.085868947 0.66157591
-0.061735824 0.085868947 0.66157591
-0.057807188 0.08586894 0.66157597
-0.053878546 0.085868947 0.66157591
-0.049949899 0.08586894 0.66157591
-0.046021257 0.085868932 0.66157585
-0.042092614 0.085868925 0.66157585
-0.038163964 0.085868917 0.66157585
-0.034235317 0.085868917 0.66157585
-0.030306675 0.085868925 0.66157585
-0.025816798 0.085868917 0.66157585
-0.021888157 0.085868917 0.66157585
-0.017959513 0.085868917 0.66157579
-0.014030869 0.08586891 0.66157579
-0.010102225 0.085868903 0.66157585
-0.0061735823 0.085868903 0.66157579
-0.0022449389 0.085868903 0.66157579
0.0022449389 0.085868903 0.66157579
0.0061735818 0.085868903 0.66157579
0.010102225 0.085868903 0.66157579
0.014030867 0.085868903 0.66157579
0.017959509 0.085868895 0.66157573
0.021888152 0.085868895 0.66157573
0.025816793 0.085868895 0.66157573
0.030306667 0.085868903 0.66157573
0.034235314 0.085868895 0.66157573
0.038163956 0.085868895 0.66157573
0.042092595 0.085868895 0.66157573
0.046021242 0.085868895 0.66157573
0.049949877 0.085868895 0.66157568
0.05387852 0.085868895 0.66157573
0.057807162 0.085868895 0.66157568
0.061735805 0.085868895 0.66157568
0.066225678 0.085868888 0.66157568
0.070154317 0.085868888 0.66157556
0.074082963 0.085868888 0.6615755
0.078011595 0.085868888 0.66157556
0.081940241 0.085868888 0.6615755
0.085868873 0.085868888 0.66157556
0.089797504 0.085868888 0.6615755
0.094287395 0.085868873 0.66157544
0.097895324 0.085708521 0.6615755
-0.097542644 0.08901187 0.66157615
-0.094287492 0.089797609 0.66157621
-0.089797609 0.089797609 0.66157621
-0.085868955 0.089797609 0.66157621
-0.081940301 0.089797609 0.66157615
-0.078011654 0.089797594 0.66157609
-0.074083015 0.089797609 0.66157615
-0.070154369 0.089797594 0.66157609
-0.066225715 0.089797601 0.66157615
-0.061735846 0.089797594 0.66157615
-0.057807196 0.089797586 0.66157597
-0.053878549 0.089797594 0.66157603
-0.049949903 0.089797586 0.66157597
-0.046021264 0.089797586 0.66157597
-0.042092618 0.089797564 0.66157585
-0.038163967 0.089797579 0.66157597
-0.034235325 0.089797564 0.66157591
-0.030306682 0.089797579 0.66157597
-0.0258168 0.089797579 0.66157591
-0.021888157 0.089797564 0.66157585
-0.017959513 0.089797579 0.66157591
-0.01403087 0.089797564 0.66157585
-0.010102226 0.089797571 0.66157591
-0.0061735823 0.089797556 0.66157585
-0.0022449391 0.089797556 0.66157591
0.0022449389 0.089797571 0.66157579
0.0061735823 0.089797556 0.66157579
0.010102225 0.089797556 0.66157579
0.014030869 0.089797556 0.66157579
0.017959511 0.089797541 0.66157579
0.021888154 0.089797556 0.66157579
0.025816796 0.089797541 0.66157568
0.030306671 0.089797541 0.66157568
0.034235314 0.089797549 0.66157579
0.03816396 0.089797541 0.66157568
0.042092603 0.089797556 0.66157573
0.046021238 0.089797541 0.66157568
0.049949884 0.089797549 0.66157573
0.053878531 0.089797534 0.66157568
0.057807162 0.089797549 0.66157573
0.061735809 0.089797527 0.66157568
0.066225678 0.089797527 0.66157568
0.070154317 0.089797534 0.66157573
0.074082971 0.089797519 0.66157568
0.078011595 0.089797519 0.66157562
0.081940249 0.089797512 0.66157556
0.085868888 0.089797519 0.66157562
0.089797512 0.089797512 0.6615755
0.094175145 0.089685254 0.66157544
0.097093567 0.088675052 0.66157556
-0.093352102 0.093352102 0.66157621
-0.089797609 0.0942875 0.66157621
-0.085868955 0.094287492 0.66157621
-0.081940301 0.0942875 0.66157621
-0.078011669 0.094287477 0.66157621
-0.074083023 0.094287485 0.66157621
-0.070154369 0.094287477 0.66157621
-0.066225715 0.094287485 0.66157615
