# .PCD v0.7 - Point Cloud Data file format
VERSION 0.7
FIELDS x y z
SIZE 4 4 4
TYPE F F F
COUNT 1 1 1
WIDTH 1207
HEIGHT 1
VIEWPOINT 0 0 0 1 0 0 0
POINTS 1207
DATA ascii
-0.073791772 -0.057073321 0.67956817
-0.069756247 -0.057073299 0.67956787
-0.066297241 -0.057073276 0.67956764
-0.063414738 -0.057073258 0.67956746
-0.085129716 -0.052845761 0.67956942
-0.081552424 -0.053880472 0.67956913
-0.07782732 -0.054190874 0.67956871
-0.073791794 -0.054190855 0.67956847
-0.069756284 -0.054190826 0.67956823
-0.06629727 -0.054190814 0.67956799
-0.06226176 -0.054190788 0.67956758
-0.058331069 -0.05403354 0.6795674
-0.054421347 -0.053383656 0.67956716
-0.0504435 -0.052749489 0.67956692
-0.047272749 -0.052461222 0.67956674
-0.089126863 -0.049463682 0.67957002
-0.085898429 -0.050155457 0.67956972
-0.081862889 -0.050155435 0.67956948
-0.077827372 -0.050155416 0.67956913
-0.073791847 -0.050155398 0.67956883
-0.069756322 -0.050155371 0.67956859
-0.066297308 -0.050155357 0.67956835
-0.06226179 -0.05015533 0.67956805
-0.05822628 -0.050155312 0.67956781
-0.05419077 -0.050155286 0.6795674
-0.050155267 -0.050155267 0.67956716
-0.046119764 -0.050155241 0.67956686
-0.04224899 -0.049825799 0.67956656
-0.038394682 -0.049232818 0.67956638
-0.035166286 -0.049002204 0.6795662
-0.09310481 -0.045255277 0.67957079
-0.089934014 -0.046120007 0.67957038
-0.085898481 -0.046119988 0.6795702
-0.081862941 -0.046119977 0.6795699
-0.077827416 -0.046119947 0.67956954
-0.073791891 -0.046119928 0.67956924
-0.069756359 -0.04611991 0.67956895
-0.066297345 -0.046119895 0.67956877
-0.062261831 -0.046119872 0.67956841
-0.058226313 -0.046119858 0.67956811
-0.054190807 -0.046119828 0.67956781
-0.050155293 -0.046119809 0.67956758
-0.046119802 -0.046119802 0.67956728
-0.042084292 -0.046119779 0.67956704
-0.0380488 -0.046119753 0.67956668
-0.034013305 -0.046119738 0.67956638
-0.030110858 -0.045720603 0.67956614
-0.025942333 -0.044966713 0.67956591
-0.021906851 -0.044390198 0.67956567
-0.093825482 -0.041940425 0.67957115
-0.089934073 -0.04208453 0.67957073
-0.085898533 -0.042084515 0.6795705
-0.081862994 -0.042084496 0.6795702
-0.077971593 -0.042228606 0.6795699
-0.073791921 -0.043237451 0.67956954
-0.069756396 -0.043237437 0.6795693
-0.066066779 -0.04277622 0.67956907
-0.062261865 -0.042084411 0.67956883
-0.058226354 -0.042084392 0.67956853
-0.054190833 -0.042084366 0.67956823
-0.050155327 -0.042084351 0.67956793
-0.04611982 -0.042084336 0.67956764
-0.042084318 -0.042084318 0.6795674
-0.038048819 -0.042084303 0.6795671
-0.034013323 -0.042084284 0.6795668
-0.029977834 -0.042084266 0.67956644
-0.025942346 -0.042084247 0.6795662
-0.021906858 -0.042084228 0.67956591
-0.017871376 -0.042084213 0.67956561
-0.014082969 -0.041425347 0.67956537
-0.010376922 -0.040931191 0.67956519
-0.096506305 -0.037703179 0.67957175
-0.093969665 -0.038049072 0.67957145
-0.089934111 -0.03804905 0.67957121
-0.085898586 -0.038049038 0.67957085
-0.082343459 -0.038337264 0.67957062
-0.078980491 -0.039778497 0.67957026
-0.060820635 -0.038913678 0.67956907
-0.058226388 -0.038048923 0.67956895
-0.054190867 -0.038048908 0.67956859
-0.050155357 -0.038048889 0.67956835
-0.04611985 -0.038048871 0.67956805
-0.04208434 -0.03804886 0.67956781
-0.038048841 -0.038048841 0.67956746
-0.034013342 -0.038048826 0.67956716
-0.029977851 -0.038048808 0.67956698
-0.025942361 -0.038048793 0.67956662
-0.021906873 -0.038048774 0.67956632
-0.017871387 -0.038048759 0.67956609
-0.013835908 -0.038048744 0.67956567
-0.0098004304 -0.038048726 0.67956543
-0.0058802543 -0.037933413 0.67956519
-0.0018736102 -0.037328083 0.67956495
0.0014988877 -0.036780398 0.67956477
0.0046119606 -0.036319196 0.6795646
-0.09685225 -0.034013588 0.67957211
-0.093969718 -0.034013577 0.67957193
-0.08993417 -0.034013566 0.67957163
-0.08589863 -0.034013551 0.67957133
-0.083304346 -0.034301788 0.67957109
-0.05764991 -0.03401345 0.6795693
-0.0541909 -0.034013439 0.67956901
-0.050155383 -0.03401342 0.67956871
-0.046119872 -0.034013409 0.67956853
-0.042084366 -0.034013391 0.67956823
-0.03804886 -0.034013379 0.67956781
-0.034013364 -0.034013364 0.67956758
-0.029977867 -0.034013353 0.67956728
-0.025942376 -0.034013335 0.6795671
-0.021906884 -0.03401332 0.67956668
-0.0178714 -0.034013301 0.67956638
-0.013835914 -0.034013294 0.67956614
-0.009800435 -0.034013275 0.67956585
-0.0057649598 -0.03401326 0.67956549
-0.0017294873 -0.034013245 0.67956531
0.0017294863 -0.034013234 0.67956495
0.0057649524 -0.034013215 0.67956471
0.0096357027 -0.033683781 0.67956448
0.012682889 -0.032860212 0.67956436
-0.09685231 -0.029978096 0.67957252
-0.09396977 -0.029978087 0.67957234
-0.089934222 -0.029978076 0.67957205
-0.085898675 -0.029978065 0.67957169
-0.083592653 -0.029978056 0.67957151
-0.057457775 -0.030362302 0.67956966
-0.05419093 -0.029977961 0.67956942
-0.050155416 -0.029977947 0.67956918
-0.046119902 -0.029977936 0.67956883
-0.042084392 -0.02997792 0.67956859
-0.038048886 -0.029977914 0.67956823
-0.034013383 -0.029977895 0.67956799
-0.029977886 -0.029977888 0.67956775
-0.025942387 -0.029977873 0.6795674
-0.021906897 -0.029977858 0.67956722
-0.017871408 -0.029977849 0.6795668
-0.013835925 -0.029977832 0.6795665
-0.0098004406 -0.029977821 0.6795662
-0.0057649626 -0.029977806 0.67956597
-0.0017294883 -0.029977797 0.67956567
0.0017294876 -0.029977782 0.67956543
0.0057649557 -0.029977771 0.67956519
0.0098004211 -0.029977761 0.67956489
0.013835881 -0.029977744 0.67956454
0.017727219 -0.029257119 0.67956436
0.02104206 -0.028536491 0.67956418
-0.09685237 -0.025942599 0.67957288
-0.093969837 -0.025942592 0.67957276
-0.089934267 -0.025942584 0.6795724
-0.085898727 -0.02594257 0.67957211
-0.083304457 -0.025654314 0.67957199
-0.05789705 -0.025777778 0.67957014
-0.05419096 -0.025942482 0.67956978
-0.050155446 -0.025942471 0.6795696
-0.046119925 -0.025942462 0.67956924
-0.042084415 -0.025942449 0.67956895
-0.038048908 -0.025942443 0.67956871
-0.034013405 -0.025942424 0.67956841
-0.029977903 -0.025942413 0.67956811
-0.025942406 -0.025942406 0.67956781
-0.02190691 -0.025942393 0.67956758
-0.017871417 -0.025942385 0.67956728
-0.01383593 -0.025942372 0.67956704
-0.0098004462 -0.025942361 0.67956668
-0.0057649668 -0.025942354 0.67956638
-0.0017294893 -0.025942339 0.67956603
0.0017294884 -0.025942329 0.67956579
0.0057649589 -0.025942316 0.67956549
0.0098004257 -0.025942305 0.67956519
0.013835888 -0.025942294 0.67956495
0.01787135 -0.025942283 0.6795646
0.021906808 -0.025942272 0.6795643
0.025777549 -0.025612835 0.67956412
0.028824732 -0.02478927 0.679564
-0.096275926 -0.021907097 0.6795733
-0.093969889 -0.021907089 0.67957312
-0.089934334 -0.021907078 0.67957282
-0.085898779 -0.021907071 0.67957252
-0.082110301 -0.021742349 0.67957222
-0.078980722 -0.020177556 0.67957222
-0.06130122 -0.020946184 0.67957085
-0.058226515 -0.021907009 0.67957044
-0.054190993 -0.021906998 0.67957026
-0.050155476 -0.021906987 0.67957002
-0.046119958 -0.021906978 0.67956978
-0.042084444 -0.021906972 0.67956942
-0.03804893 -0.021906961 0.67956913
-0.034013424 -0.02190695 0.67956877
-0.029977923 -0.021906942 0.67956847
-0.025942421 -0.021906933 0.67956823
-0.022022225 -0.022022219 0.67956799
-0.018036142 -0.022812834 0.67956764
-0.013835938 -0.023059897 0.67956722
-0.01003105 -0.023175186 0.67956692
-0.0057649687 -0.023636371 0.67956656
-0.0017294899 -0.023636362 0.67956632
0.010376925 -0.02363633 0.67956543
0.014066982 -0.022714652 0.6795882
0.017976178 -0.022064054 0.67956501
0.021906819 -0.021906821 0.67956465
0.025942275 -0.02190681 0.67956448
0.02997773 -0.021906801 0.67956412
0.033869058 -0.021186177 0.679564
0.036319155 -0.020177308 0.67956388
-0.096275963 -0.019024592 0.6795736
-0.093825817 -0.018015709 0.67957348
-0.089934386 -0.017871577 0.67957324
-0.085898831 -0.017871568 0.67957294
-0.081863277 -0.017871561 0.67957258
-0.077827729 -0.017871553 0.67957234
-0.074039273 -0.017212689 0.67957217
-0.069756657 -0.017295038 0.67957187
-0.066132911 -0.017542103 0.67957157
-0.062262088 -0.017871523 0.67957121
-0.058226552 -0.01787152 0.67957097
-0.054191027 -0.017871508 0.67957062
-0.050155506 -0.017871503 0.67957038
-0.046119977 -0.017871492 0.67957014
-0.04208447 -0.017871486 0.67956978
-0.038048957 -0.017871479 0.67956948
-0.034013443 -0.017871471 0.67956913
-0.029977938 -0.017871464 0.67956883
-0.026086561 -0.01801558 0.67956865
-0.0232521 -0.01864011 0.67956835
0.022252727 -0.018793754 0.67956501
0.026086414 -0.018015482 0.67956477
0.029977744 -0.01787135 0.67956454
0.034013197 -0.017871341 0.67956424
0.037600264 -0.017615115 0.67956406
-0.093105219 -0.014700824 0.67957377
-0.089934446 -0.013836064 0.67957366
-0.085898876 -0.01383606 0.67957336
-0.081863329 -0.013836056 0.67957306
-0.077827774 -0.013836049 0.67957276
-0.073792234 -0.013836043 0.6795724
-0.069756694 -0.013836038 0.67957217
-0.066297658 -0.013836031 0.67957205
-0.062262118 -0.013836026 0.67957163
-0.058226585 -0.013836022 0.67957139
-0.054191057 -0.013836014 0.67957109
-0.050155532 -0.013836008 0.67957085
-0.04612001 -0.013836004 0.67957044
-0.042084489 -0.013835996 0.6795702
-0.038048975 -0.013835991 0.67956996
-0.034013465 -0.013835984 0.67956954
-0.030344816 -0.014412478 0.6795693
-0.027095443 -0.015565467 0.67956889
0.03055425 -0.014988878 0.67956477
0.034013219 -0.013835884 0.67956465
0.03804867 -0.013835879 0.67956436
0.041827902 -0.013387489 0.67956412
-0.089588575 -0.0099158529 0.67957401
-0.085898928 -0.0098005496 0.67957371
-0.081863374 -0.0098005449 0.67957348
-0.077827826 -0.0098005403 0.67957312
-0.073792279 -0.0098005366 0.67957288
-0.069756731 -0.0098005328 0.67957252
-0.066297688 -0.0098005282 0.67957234
-0.062262159 -0.0098005245 0.67957205
-0.058226626 -0.0098005198 0.67957169
-0.054191086 -0.0098005161 0.67957145
-0.050155561 -0.0098005123 0.67957115
-0.046120036 -0.0098005077 0.67957085
-0.042084515 -0.009800504 0.6795705
-0.038048998 -0.0098004984 0.67957026
-0.034301732 -0.010665243 0.67956996
0.034877975 -0.010088671 0.67956495
0.038048688 -0.0098004201 0.67956477
0.042084139 -0.0098004155 0.67956442
0.04515877 -0.0094160838 0.6795643
-0.088493258 -0.0066297879 0.67957419
-0.085898966 -0.005765032 0.67957419
-0.081863418 -0.0057650292 0.67957389
-0.077827871 -0.0057650278 0.67957354
-0.073792316 -0.0057650246 0.67957318
-0.069756769 -0.0057650227 0.67957306
-0.066297732 -0.0057650204 0.67957276
-0.062262192 -0.0057650171 0.67957246
-0.058226656 -0.0057650153 0.67957217
-0.054191124 -0.0057650125 0.67957187
-0.050155584 -0.0057650101 0.67957157
-0.046120062 -0.0057650083 0.67957121
-0.042084541 -0.0057650055 0.67957091
-0.039086718 -0.0068027033 0.67957062
0.038625203 -0.0061318162 0.67956507
0.042084161 -0.0057649538 0.67956495
0.046119615 -0.005764951 0.6795646
0.049770731 -0.0048041246 0.67956442
-0.085514687 -0.0021138461 0.67957443
-0.08186347 -0.0017295098 0.67957419
-0.077827908 -0.0017295091 0.67957395
-0.073792368 -0.0017295085 0.6795736
-0.069756813 -0.0017295076 0.6795733
-0.06629777 -0.001729507 0.67957312
-0.062262226 -0.0017295064 0.67957276
-0.05822669 -0.0017295056 0.67957258
-0.054191153 -0.0017295048 0.67957217
-0.050155621 -0.0017295041 0.67957193
-0.046120089 -0.0017295033 0.67957163
-0.042413991 -0.0018942171 0.67957133
0.039778206 -0.0028824788 0.67956531
0.042228311 -0.0018736109 0.67956519
0.046119642 -0.0017294862 0.67956495
0.050155088 -0.0017294855 0.67956471
0.052845389 -0.00096082519 0.67956454
-0.08474604 0.00057650369 0.67957467
-0.081863508 0.0017295111 0.67957455
-0.07782796 0.0017295103 0.67957431
-0.073792398 0.0017295094 0.67957395
-0.069756843 0.0017295086 0.67957371
-0.066297807 0.0017295082 0.67957348
-0.062262267 0.0017295076 0.67957312
-0.058226719 0.0017295065 0.67957282
-0.054191183 0.0017295057 0.67957252
-0.050155647 0.0017295051 0.67957222
-0.046120107 0.0017295046 0.67957205
-0.042949341 0.0014412532 0.67957175
0.04285286 0.00096082647 0.67956543
0.046119664 0.0017294874 0.67956525
0.050155111 0.0017294866 0.67956501
0.054033335 0.0018343033 0.67956471
0.057073023 0.002882476 0.67956465
-0.080854662 0.0053326609 0.67957491
-0.077827998 0.0057650376 0.67957473
-0.073792435 0.0057650353 0.67957431
-0.069756888 0.0057650325 0.67957401
-0.066297844 0.0057650306 0.67957383
-0.062262293 0.0057650283 0.67957354
-0.058226753 0.005765025 0.6795733
-0.054191213 0.0057650222 0.67957294
-0.050155681 0.0057650204 0.67957276
-0.046367217 0.0056003034 0.6795724
0.046926774 0.005534362 0.67956555
0.050155137 0.0057649589 0.67956543
0.054190584 0.0057649557 0.67956519
0.057793669 0.0061973264 0.67956495
-0.080134064 0.0086475611 0.67957509
-0.077683918 0.0096564423 0.67957503
-0.073792495 0.0098005645 0.67957479
-0.069756933 0.0098005608 0.67957449
-0.066297881 0.009800557 0.67957425
-0.062262338 0.0098005524 0.67957395
-0.058226783 0.0098005477 0.6795736
-0.054191243 0.0098005449 0.6795733
-0.050155707 0.0098005403 0.67957306
-0.047026105 0.0096358228 0.67957276
0.047389768 0.0095702112 0.67959177
0.05015517 0.009800436 0.67956579
0.054190625 0.0098004313 0.67956561
0.058226068 0.0098004267 0.67956525
0.060820282 0.010088672 0.67956513
-0.07696332 0.012971345 0.67957526
-0.073792525 0.0138361 0.67957509
-0.06975697 0.013836094 0.67957491
-0.066297919 0.013836086 0.67957467
-0.062262371 0.013836081 0.67957425
-0.058226824 0.013836077 0.67957407
-0.054191276 0.013836071 0.67957383
-0.050155733 0.013836063 0.67957348
-0.0478497 0.012683054 0.67957318
0.047849223 0.01383592 0.67956638
0.050155204 0.013835918 0.6795662
0.054190647 0.013835911 0.67956591
0.058226097 0.013835904 0.67956567
0.061951127 0.01414632 0.67956543
-0.073071927 0.017727511 0.67957544
-0.069757007 0.017871629 0.67957526
-0.066297963 0.017871624 0.67957503
-0.062262412 0.017871616 0.67957473
-0.058226857 0.017871611 0.67957443
-0.05419131 0.017871602 0.67957419
-0.050485194 0.017706878 0.67957389
0.047849253 0.017871408 0.6795668
0.050155222 0.017871402 0.67956662
0.054190684 0.017871397 0.67956638
0.058226135 0.017871387 0.67956609
0.062261578 0.017871378 0.67956573
0.065432288 0.018159622 0.67956555
-0.072447412 0.020561995 0.67957574
-0.069757052 0.021907173 0.67957568
-0.066298001 0.021907166 0.67957544
-0.062262446 0.021907154 0.67957509
-0.058226895 0.021907145 0.67957491
-0.05419134 0.021907138 0.67957449
-0.050386392 0.022137729 0.67957431
0.050155256 0.021906892 0.67956704
0.054190703 0.021906884 0.67956668
0.058226168 0.021906875 0.67956638
0.062261619 0.021906866 0.6795662
0.066297062 0.021906855 0.67956585
0.068603039 0.023059847 0.67956579
-0.06906528 0.025712114 0.67957604
-0.066298038 0.025942709 0.6795758
-0.062262479 0.025942704 0.67957562
-0.058226924 0.025942687 0.67957526
-0.05419137 0.025942676 0.67957497
-0.050155826 0.025942666 0.67957467
0.050155286 0.025942391 0.6795674
0.054190744 0.02594238 0.6795671
0.058226202 0.025942367 0.6795668
0.062261652 0.025942355 0.67956656
0.066297099 0.025942342 0.67956626
0.069611937 0.026086461 0.67956603
-0.066067472 0.029747654 0.67957622
-0.062262513 0.029978249 0.67957598
-0.058226958 0.029978236 0.67957562
-0.054191403 0.029978221 0.67957538
-0.050155852 0.029978208 0.67957515
-0.047849838 0.031707723 0.67957509
0.050539646 0.029785722 0.67956775
0.054190777 0.029977879 0.67956746
0.058226239 0.029977864 0.67956728
0.062261689 0.029977851 0.67956698
0.066297136 0.029977838 0.67956662
0.069756098 0.029977826 0.67956638
0.072720923 0.030554315 0.67956626
-0.065145083 0.032860793 0.6795764
-0.062262554 0.034013804 0.67957634
-0.058226995 0.034013785 0.67957604
-0.054191437 0.034013774 0.67957568
-0.050155882 0.034013763 0.6795755
-0.047849853 0.034013752 0.67957526
0.050155342 0.034013394 0.67956817
0.054190811 0.034013379 0.67956787
0.058226269 0.034013364 0.67956764
0.06226173 0.034013353 0.67956734
0.066297181 0.034013335 0.67956704
0.069756143 0.034013323 0.6795668
0.073634356 0.034118127 0.67956644
-0.061429843 0.037600961 0.67957664
-0.058227021 0.038049344 0.67957646
-0.054191463 0.038049325 0.6795761
-0.050155912 0.03804931 0.67957586
-0.047849882 0.038049303 0.67957574
0.04746506 0.03843325 0.67956883
0.050155371 0.038048904 0.67956859
0.054190837 0.038048886 0.67956829
0.058226302 0.038048875 0.67956805
0.062261764 0.038048856 0.67956769
0.066297218 0.038048837 0.6795674
0.069756173 0.038048822 0.67956716
0.073791623 0.038048808 0.67956698
0.077394709 0.038481165 0.67956662
-0.060533084 0.040931895 0.67957687
-0.058227055 0.042084903 0.67957687
-0.054191496 0.042084884 0.67957658
-0.050155938 0.042084873 0.67957628
-0.047273401 0.042084858 0.6795761
0.046698093 0.042085931 0.67959416
0.050155401 0.042084418 0.67956901
0.054190874 0.0420844 0.67956871
0.05822634 0.042084381 0.67956847
0.062261794 0.042084366 0.67956811
0.066297255 0.042084344 0.67956781
0.069756217 0.042084329 0.67956758
0.073791675 0.04208431 0.67956728
0.077827111 0.042084295 0.67956698
0.080517434 0.042852949 0.67956686
-0.057362322 0.045255702 0.67957711
-0.054191526 0.04612045 0.67957693
-0.050155971 0.046120431 0.67957664
-0.046430841 0.046430845 0.67957652
-0.043237884 0.047849923 0.67957634
0.043237481 0.04727298 0.67957002
0.046119962 0.046119958 0.67956972
0.050155435 0.04611994 0.67956942
0.054190908 0.046119917 0.67956913
0.058226366 0.046119899 0.67956883
0.062261824 0.046119876 0.67956847
0.066297293 0.046119858 0.67956823
0.069756255 0.046119843 0.67956799
0.073791713 0.046119817 0.67956764
0.077827163 0.046119805 0.67956734
0.081382208 0.046408039 0.6795671
-0.053285617 0.049991302 0.67957729
-0.050155997 0.050155997 0.67957711
-0.046120435 0.050155979 0.67957681
-0.042469222 0.050540298 0.67957658
0.042776302 0.050386108 0.67957032
0.046119988 0.050155487 0.67957014
0.050155457 0.050155465 0.67956978
0.054190937 0.050155446 0.67956948
0.058226407 0.050155416 0.67956924
0.062261868 0.050155398 0.67956895
0.066297337 0.050155375 0.67956865
0.069756299 0.050155357 0.67956829
0.07379175 0.050155338 0.67956805
0.0778272 0.050155312 0.67956769
0.081862658 0.050155293 0.6795674
0.085033372 0.050443523 0.67956728
-0.052462053 0.052462053 0.67957747
-0.049899798 0.053743169 0.67957741
-0.046120461 0.054191545 0.67957711
-0.042084906 0.054191526 0.67957687
-0.039120015 0.054768022 0.67957675
0.039778545 0.05534406 0.67957109
0.04208453 0.054191034 0.67957073
0.046120014 0.054191016 0.67957044
0.050155494 0.05419099 0.6795702
0.054190967 0.054190964 0.67956996
0.058226448 0.054190937 0.67956966
0.062261917 0.054190919 0.67956924
0.066297367 0.054190893 0.67956901
0.069756337 0.054190874 0.67956871
0.073791802 0.054190852 0.67956841
0.077827252 0.054190829 0.67956823
0.081862703 0.054190814 0.67956775
0.085793331 0.054348007 0.67956758
0.088204138 0.055343769 0.67956752
-0.045672093 0.057970896 0.67957753
-0.042084929 0.058227096 0.67957729
-0.038049378 0.058227073 0.67957693
-0.035166841 0.059380073 0.67957687
0.035166577 0.05937963 0.67957181
0.038206294 0.058331419 0.67957145
0.042084552 0.05822657 0.67957121
0.046120044 0.058226556 0.67957091
0.050155524 0.058226518 0.67957056
0.054190993 0.058226507 0.67957026
0.058226474 0.058226474 0.67956996
0.062261939 0.058226448 0.67956966
0.066297412 0.058226421 0.67956942
0.069756381 0.058226399 0.67956918
0.073791854 0.058226377 0.67956883
0.077827297 0.058226354 0.67956853
0.081862755 0.058226328 0.67956829
0.085898213 0.058226302 0.67956793
0.08902774 0.058390997 0.67956775
-0.044775322 0.060917497 0.67957777
-0.041980132 0.062105451 0.67957765
-0.038049396 0.062262647 0.67957735
-0.034118656 0.062419854 0.67957711
-0.031707816 0.063992143 0.67957711
0.030554682 0.063333042 0.67957455
0.034013595 0.062262166 0.67957217
0.038049091 0.06226214 0.67957187
0.042084578 0.062262114 0.67957157
0.04612007 0.062262092 0.67957127
0.05015555 0.062262058 0.67957097
0.054191027 0.062262036 0.67957067
0.058226507 0.06226201 0.67957038
0.062261984 0.062261984 0.67957008
0.066297457 0.062261958 0.67956978
0.069756418 0.062261928 0.67956954
0.073791884 0.062261898 0.6795693
0.077827342 0.062261868 0.67956895
0.0818628 0.06226185 0.67956871
0.085898258 0.062261831 0.67956835
0.089933708 0.062261794 0.67956811
0.092816181 0.063414782 0.67956799
-0.040931955 0.065145224 0.67957789
-0.037892189 0.066193409 0.67957777
-0.03401386 0.066298202 0.67957747
-0.030135535 0.066402987 0.67957729
-0.02617364 0.066990681 0.67958438
-0.023636729 0.067451149 0.67957687
0.023641219 0.067463964 0.67970598
0.026326945 0.066682108 0.67957312
0.029978111 0.066297747 0.67957282
0.034013614 0.06629771 0.67957246
0.038049113 0.066297688 0.67957234
0.042084605 0.066297658 0.67957199
0.046120096 0.066297628 0.67957169
0.05015558 0.066297606 0.67957139
0.054191057 0.066297568 0.67957115
0.058226541 0.066297553 0.67957079
0.062262014 0.066297509 0.67957044
0.066297494 0.066297494 0.6795702
0.069756463 0.066297464 0.67956996
0.073791929 0.066297442 0.67956972
0.077827394 0.066297404 0.67956942
0.081862859 0.066297375 0.67956907
0.08589831 0.066297352 0.67956883
0.08993376 0.06629733 0.67956847
0.093639791 0.06646201 0.67956829
-0.036781114 0.069526687 0.67957795
-0.034013875 0.069757275 0.67957783
-0.029978318 0.069757238 0.67957753
-0.025942765 0.069757208 0.67957717
-0.022064444 0.069862001 0.67957699
-0.018102271 0.070448972 0.67957675
-0.015565645 0.070910163 0.67957664
0.019031629 0.070936069 0.67982495
0.022355502 0.070013076 0.67957377
0.02594262 0.069756828 0.67957348
0.029978124 0.069756798 0.67957312
0.034013629 0.069756769 0.67957288
0.038049124 0.069756731 0.67957258
0.042084623 0.069756702 0.67957228
0.046120111 0.069756672 0.67957205
0.050155602 0.069756649 0.67957175
0.054191094 0.069756612 0.67957139
0.05822657 0.06975659 0.67957115
0.06181366 0.069500335 0.67957085
0.065144517 0.068603516 0.6795705
0.075521439 0.068603449 0.67956978
0.078058019 0.069064632 0.6795696
0.081862889 0.069756411 0.67956942
0.085898355 0.069756381 0.67956907
0.089933813 0.069756351 0.67956883
0.093969256 0.069756322 0.67956853
0.09627524 0.07033281 0.67956847
-0.033437379 0.072063312 0.67957801
-0.02974773 0.072985701 0.67957783
-0.02594278 0.073792793 0.67957765
-0.021907227 0.073792771 0.67957735
-0.017871678 0.073792733 0.67957705
-0.013951433 0.073908001 0.67957681
-0.0099447165 0.074513316 0.67957652
-0.0057650506 0.074945666 0.67957634
-0.0017295146 0.074945629 0.67957592
0.0018942292 0.074698523 0.6795758
0.0057650432 0.074369051 0.67957538
0.0098005682 0.074369028 0.67957509
0.01383609 0.07379248 0.67957479
0.017871609 0.07379245 0.67957443
0.021907123 0.07379242 0.67957413
0.025942637 0.073792376 0.67957383
0.029978143 0.073792353 0.67957371
0.034013648 0.073792316 0.67957324
0.038049147 0.073792286 0.679573
0.042084649 0.073792256 0.67957264
0.046120144 0.073792227 0.67957234
0.050155636 0.073792197 0.67957211
0.05419112 0.07379216 0.67957187
0.058121786 0.073634908 0.67957157
0.060532581 0.072062597 0.67957121
0.082439438 0.07321544 0.67956972
0.085898399 0.073791914 0.67956954
0.089933865 0.073791884 0.67956918
0.093969315 0.073791854 0.67956901
0.096505888 0.074137732 0.67956889
-0.024789775 0.076675348 0.67957783
-0.021474859 0.077395968 0.67957771
-0.017871687 0.077828318 0.67957741
-0.013836141 0.077828281 0.67957717
-0.0098005943 0.077828258 0.67957681
-0.0057650539 0.077828221 0.67957664
-0.0017295153 0.077828184 0.67957634
0.0017295143 0.077828154 0.67957604
0.0057650455 0.077828124 0.67957586
0.0098005738 0.077828079 0.67957544
0.013836098 0.077828057 0.67957515
0.017871618 0.07782802 0.67957485
0.021907136 0.077827983 0.67957455
0.025942652 0.07782796 0.67957431
0.029978162 0.077827916 0.67957401
0.03401367 0.077827878 0.67957366
0.038049173 0.077827848 0.67957336
0.042084675 0.077827811 0.67957306
0.046120167 0.077827781 0.67957282
0.050155658 0.077827759 0.67957252
0.054191153 0.077827722 0.67957217
0.057534836 0.077597089 0.67957193
0.083592482 0.077827483 0.67957014
0.085898452 0.077827461 0.6795699
0.089933909 0.077827431 0.67956966
0.093969375 0.077827394 0.67956936
0.096851833 0.077827364 0.67956918
-0.017295185 0.080134362 0.67957759
-0.013547893 0.081383444 0.67957753
-0.0098006008 0.081863835 0.67957729
-0.0057650572 0.081863806 0.67957693
-0.0017295163 0.081863768 0.67957664
0.0017295154 0.081863739 0.67957646
0.0057650488 0.081863686 0.6795761
0.0098005794 0.081863664 0.67957586
0.013836106 0.081863634 0.67957556
0.017871629 0.081863597 0.67957526
0.021907151 0.081863552 0.67957497
0.025942668 0.081863515 0.67957467
0.029978177 0.081863493 0.67957437
0.034013689 0.081863455 0.67957401
0.038049191 0.081863418 0.67957383
0.042084694 0.081863381 0.67957354
0.046120189 0.081863344 0.67957324
0.050155688 0.081863306 0.67957288
0.05419118 0.081863277 0.67957258
0.057567816 0.08211033 0.67957246
0.083592519 0.081863023 0.6795705
0.085898511 0.081863008 0.67957038
0.089933969 0.081862986 0.67957008
0.093969427 0.081862934 0.67956978
0.096851893 0.081862912 0.67956966
-0.0092240982 0.084746391 0.67957747
-0.0055179852 0.085240521 0.67957735
-0.0017295171 0.085899353 0.67957705
0.0017295165 0.085899323 0.67957687
0.0057650525 0.085899271 0.67957646
0.009800585 0.085899249 0.67957622
0.013836113 0.085899211 0.67957592
0.017871641 0.085899167 0.67957568
0.021907164 0.085899144 0.67957538
0.025942681 0.085899092 0.67957509
0.029978199 0.085899062 0.67957479
0.034013703 0.085899025 0.67957443
0.038049217 0.085898988 0.67957419
0.042084724 0.085898951 0.67957389
0.046120226 0.085898913 0.67957354
0.050155722 0.085898876 0.6795733
0.054191217 0.085898846 0.67957306
0.058082584 0.086042941 0.6795727
0.082769014 0.086063303 0.67957103
0.085898548 0.085898556 0.67957073
0.089934014 0.085898526 0.67957044
0.093969479 0.085898489 0.6795702
0.096736655 0.085667856 0.67956996
0.0017295171 0.088205375 0.67957705
0.0060121282 0.088699482 0.67957681
0.0098005896 0.08935833 0.67957664
0.013836122 0.089934789 0.6795764
0.01787165 0.089934766 0.6795761
0.021907177 0.089934722 0.6795758
0.025942698 0.089934677 0.67957544
0.029978214 0.089934647 0.67957515
0.03401373 0.08993461 0.67957491
0.038049236 0.089934573 0.67957461
0.042084742 0.089934528 0.67957419
0.046120252 0.089934483 0.67957395
0.050155748 0.089934461 0.67957377
0.054191247 0.089934401 0.67957342
0.058226734 0.089934371 0.67957312
0.061685733 0.090510845 0.67957294
0.06514474 0.091663837 0.67957282
0.078213058 0.090896226 0.67958087
0.081978433 0.090049438 0.67957139
0.085898601 0.089934111 0.67957115
0.089934066 0.089934066 0.67957091
0.093969531 0.089934044 0.67957062
0.096275494 0.088780999 0.67957026
0.015565642 0.092817344 0.67957652
0.017871659 0.092817329 0.6795764
0.022099353 0.093585968 0.67957616
0.025942713 0.093970269 0.67957592
0.029978231 0.093970217 0.6795755
0.034013748 0.093970187 0.67957526
0.038049262 0.093970157 0.67957497
0.042084768 0.093970113 0.67957467
0.046120275 0.09397006 0.67957443
0.050155777 0.093970031 0.67957407
0.05419128 0.093969978 0.67957383
0.058226772 0.093969941 0.67957348
0.062262278 0.093969911 0.67957324
0.066297762 0.093969859 0.67957294
0.069756739 0.093969829 0.6795727
0.073792227 0.093969792 0.6795724
0.077827707 0.093969747 0.67957211
0.081863187 0.09396971 0.67957187
0.085898653 0.093969673 0.67957157
0.089934118 0.093969621 0.67957121
0.093277797 0.093738995 0.67957097
0.027095728 0.096276313 0.67957604
0.030362582 0.096660614 0.67957586
0.034178481 0.097099826 0.67957556
0.038213998 0.097758651 0.67957538
0.042084794 0.09800569 0.67957515
0.046120301 0.098005645 0.67957485
0.050155807 0.0980056 0.67957455
0.05419131 0.09800557 0.67957413
0.058226813 0.098005511 0.67957401
0.0622623 0.098005481 0.67957371
0.066297792 0.098005436 0.6795733
0.069756791 0.098005392 0.67957312
0.073792279 0.098005369 0.67957288
0.077827759 0.098005317 0.67957252
0.081863232 0.09800528 0.67957222
0.085898705 0.098005235 0.67957193
0.089623757 0.09769477 0.67957169
0.092816636 0.096852146 0.67957133
0.042661317 0.10088825 0.67957532
0.046367399 0.10138236 0.67957509
0.050299961 0.10189706 0.67957497
0.054191347 0.10204116 0.67957455
0.058226842 0.1020411 0.67957431
0.062262345 0.10204106 0.67957401
0.066297829 0.10204101 0.67957377
0.069756828 0.10204098 0.67957348
0.073792316 0.10204092 0.67957324
0.077827811 0.1020409 0.67957288
0.081863292 0.10204085 0.67957258
0.085514426 0.10165647 0.67957228
0.088204727 0.10088776 0.67957205
0.054767862 0.10434719 0.67957479
0.058457471 0.10480835 0.67957461
0.062419597 0.10539532 0.67957437
0.066402704 0.10591937 0.67957407
0.069641568 0.10573065 0.67957389
0.073792346 0.10550001 0.67957354
0.077683717 0.10535583 0.6795733
0.081478983 0.10473124 0.679573
-0.076966099 -0.041087165 0.68215477
-0.075160861 -0.042206358 0.68153805
-0.08086732 -0.037543919 0.68088937
-0.082754679 -0.033563368 0.68216842
-0.08290606 -0.028408371 0.68341631
-0.082683772 -0.026598096 0.68158394
-0.080265388 -0.022520505 0.6806888
-0.079468228 -0.021462221 0.68376684
-0.020230319 -0.020230319 0.68134922
-0.017983695 -0.021464411 0.68383658
-0.0086928802 -0.022601489 0.68313658
0.00057893136 -0.023736184 0.68243635
0.0086959796 -0.023769012 0.68338013
-0.075761564 -0.019084975 0.68173051
-0.024845224 -0.016756082 0.68109792
0.022515157 -0.017896663 0.68052715
-0.029456727 -0.013284407 0.68084681
0.030630497 -0.014448348 0.68126059
-0.034064829 -0.0098152906 0.68059587
0.034162641 -0.0098434733 0.68255007
-0.038669538 -0.0063487301 0.68034512
0.037649419 -0.0052129966 0.68277878
-0.041095562 -0.0017364322 0.68229419
0.041138537 -0.000579416 0.68300766
-0.044537019 0.0063624312 0.68181336
0.044630043 0.0040572765 0.68323743
0.046850611 0.010989649 0.68181306
-0.047973629 0.014449889 0.68133324
0.046997059 0.012184423 0.68394434
-0.04931533 0.019145951 0.68390864
-0.049113143 0.020800069 0.68110472
0.047981735 0.020233262 0.68144834
0.048131637 0.021456271 0.6835773
-0.048044305 0.029521199 0.68233699
-0.04791275 0.030594889 0.68046862
0.049188375 0.030092616 0.68214804
0.047975108 0.035258815 0.68135422
-0.046842903 0.039324112 0.68170089
0.046948534 0.037674751 0.68323815
0.044527553 0.043370996 0.68166846
-0.045150857 0.045152947 0.6823647
0.043490972 0.045810491 0.68355417
-0.041670665 0.049775586 0.68225056
0.041597247 0.050265893 0.68104452
-0.038191713 0.054396786 0.68213785
0.040030278 0.053953856 0.68387169
-0.034713909 0.059016466 0.68202519
0.03412218 0.059569232 0.68174171
0.0387422 0.056089453 0.68162352
-0.031759445 0.062941447 0.68068361
0.029500626 0.063050359 0.68186146
-0.029503562 0.06478864 0.68189937
-0.024948768 0.066723451 0.68393642
-0.022577204 0.067731611 0.68240255
0.024877446 0.066532701 0.68198121
-0.020216256 0.068735272 0.6808756
-0.016819471 0.070177794 0.68367457
-0.014467039 0.071177833 0.6821419
0.017969951 0.071300127 0.68331397
0.020252639 0.070016265 0.68210095
0.079423577 0.071307302 0.68338269
-0.012125131 0.072173394 0.68061608
-0.0086964034 0.073629551 0.68341345
-0.00057929225 0.07357011 0.68286175
0.001154696 0.073358394 0.68089664
0.0098308055 0.072296232 0.68177444
0.082531929 0.075606175 0.68033224
0.082772642 0.07756374 0.68231654
0.082740277 0.083317675 0.68204969
0.081531644 0.086157553 0.68161976
0.065316088 0.091328338 0.68137681
0.075680576 0.091856577 0.68100172
0.077636853 0.090381995 0.68295974
0.080293179 0.088380262 0.68092448
0.074213184 0.092187196 0.68345284
-0.07835082 -0.040045973 0.68413979
-0.073297858 -0.042466689 0.68574178
-0.080934972 -0.037847288 0.68636715
-0.079743311 -0.038998552 0.68613374
-0.082652725 -0.033756711 0.68611914
-0.083129622 -0.030229475 0.68525916
-0.082177438 -0.025061203 0.68701869
-0.078663819 -0.020394323 0.68687284
-0.01692513 -0.021594131 0.68796939
-0.0075793299 -0.022737991 0.68726236
0.0017472724 -0.02387939 0.6865536
0.011085349 -0.022754136 0.6877504
0.016830388 -0.020312538 0.68411833
-0.021560133 -0.019229308 0.68688619
0.024982441 -0.016848622 0.68485951
-0.030860474 -0.012227735 0.68637556
-0.026212033 -0.01572722 0.68663079
-0.035505474 -0.0087308539 0.68612075
0.03323352 -0.01107784 0.68728453
-0.040104311 -0.0040685534 0.68513644
0.036744181 -0.0064156502 0.68751645
0.040257212 -0.0017503136 0.68774855
-0.04257663 0.0017497245 0.68751711
0.043772817 0.002918188 0.68798399
-0.043560907 0.0040656845 0.68465334
-0.046043359 0.0099080643 0.68702888
-0.047012515 0.012188429 0.68416923
0.047144424 0.013386688 0.68608892
-0.049450964 0.018035058 0.68578964
0.048358385 0.023306161 0.68679762
-0.048309591 0.027356034 0.68610466
-0.048176587 0.028441599 0.68421566
0.049380694 0.031952213 0.68481511
0.048352793 0.034371264 0.68671823
-0.047101315 0.037215054 0.68546152
0.04539727 0.04132551 0.68608505
-0.043651436 0.047143552 0.68607622
-0.04015246 0.051790852 0.68595898
0.041924611 0.049496904 0.68640435
-0.036654852 0.056436837 0.68584508
0.03539731 0.058608662 0.68403059
0.036681235 0.057641938 0.68633866
-0.033158407 0.061081275 0.68573117
0.03076046 0.062101305 0.68415111
0.032028783 0.061145857 0.6864562
-0.029724021 0.064693458 0.68702489
-0.027331017 0.065710738 0.6854772
0.026748434 0.06512326 0.68542469
-0.021556195 0.068164185 0.68676072
-0.019182499 0.069173254 0.68521416
-0.013394644 0.071632229 0.68649668
0.015143957 0.071645238 0.68662131
0.016843047 0.071437746 0.68463284
0.022100601 0.068624169 0.68554562
-0.011040237 0.07263314 0.6849516
-0.0058318502 0.074049003 0.68730676
-0.002324441 0.073783197 0.68483955
0.0063974583 0.072715424 0.6857276
0.083014607 0.079531476 0.68431109
0.083218448 0.081472903 0.68599141
0.08163964 0.085904457 0.68576366
0.065914921 0.091580905 0.68760711
0.077820443 0.090243258 0.68630058
0.069889396 0.092603616 0.68654013
0.072626479 0.092380881 0.68488878
-0.077179819 -0.040927384 0.68922353
-0.071367495 -0.04270399 0.68957371
-0.081349611 -0.036870688 0.68988353
-0.082370788 -0.034467209 0.68863517
-0.082019284 -0.025192268 0.69059122
0.0029297967 -0.024024334 0.69072086
-0.0064522475 -0.022876149 0.69143826
0.019274393 -0.019274393 0.68849671
0.027481342 -0.015787154 0.68924743
-0.032287225 -0.011153769 0.69199526
-0.036969725 -0.0076286737 0.69173664
-0.041583933 -0.00058568915 0.69040239
-0.045066074 0.0076085581 0.68991262
0.046295632 0.0064462274 0.69079316
-0.048543099 0.015791129 0.689421
0.047367334 0.015205251 0.6893329
-0.048577596 0.025164546 0.68991095
0.048587177 0.025171669 0.69004697
-0.047362596 0.035082594 0.68926394
0.046799473 0.038026869 0.68959427
-0.046155259 0.043818284 0.68869859
-0.045151222 0.045151222 0.69121617
0.0433097 0.046238538 0.68991685
-0.042133775 0.049158383 0.68983299
-0.038615793 0.053830624 0.68971246
0.039275289 0.055688843 0.69100261
0.040346734 0.05321091 0.68927795
-0.035099305 0.058501687 0.68959731
0.034591552 0.059216049 0.69111949
0.03797387 0.056668699 0.68866277
-0.032111347 0.062471166 0.68822575
-0.031056641 0.063871205 0.69073856
0.029271258 0.063222781 0.69006777
0.033305779 0.060184125 0.68877888
-0.028742004 0.065109439 0.69144249
-0.026335871 0.0661323 0.68987477
-0.023940627 0.067150533 0.6883142
0.023965221 0.067219526 0.68902135
0.025219547 0.066274621 0.69135946
-0.020522058 0.068602309 0.69117486
-0.018135484 0.069616854 0.6896084
-0.015759705 0.070626825 0.68804902
0.012863831 0.071923688 0.68928987
0.019292504 0.07073918 0.6891436
0.020531192 0.069806054 0.69148254
-0.012308496 0.072092623 0.69090891
-0.0099414513 0.073098905 0.68934393
-0.005844106 0.074212939 0.68882835
0.0023421678 0.073210552 0.69039679
0.0040878551 0.072997414 0.6883868
0.011142631 0.072133876 0.69130427
0.082520314 0.075497307 0.6898852
0.082682811 0.076818779 0.69124371
0.082563184 0.083734289 0.6902436
0.081341177 0.086606637 0.68981194
0.063757621 0.090664506 0.68951017
0.075552791 0.09195184 0.6903922
0.077889055 0.090191185 0.69035566
0.080230124 0.088428825 0.69032246
0.074538693 0.092146263 0.69185191
-0.075989239 -0.041823532 0.6943804
-0.069415435 -0.042943962 0.69344866
-0.080690764 -0.038283937 0.69428587
-0.079280406 -0.039346572 0.69225675
-0.082594819 -0.033938799 0.6937868
-0.083033279 -0.029444959 0.69417369
-0.082807414 -0.027602471 0.69228542
0.0059006754 -0.024187755 0.69541943
-0.080577791 -0.022938203 0.69331384
-0.015853692 -0.021725429 0.69215238
-0.0053113736 -0.023015954 0.69566387
0.013505474 -0.021726198 0.69217688
-0.022911737 -0.018211894 0.69251388
0.021749886 -0.018222876 0.69293153
-0.027601231 -0.014681505 0.6922543
0.030012472 -0.014711996 0.69369197
0.03229142 -0.012329451 0.69208515
0.035826292 -0.007635111 0.69232035
-0.040582862 -0.0029407872 0.69331193
0.039363634 -0.0029375846 0.69255692
-0.043086473 0.0029511284 0.69574994
0.042903602 0.0017631616 0.69279695
-0.044080507 0.0052896608 0.69281995
0.046442263 0.0076423977 0.69298106
-0.046594542 0.011206282 0.69525325
0.046589818 0.0088461684 0.6951828
-0.047572926 0.013508362 0.69232488
0.047667719 0.017655645 0.69370443
-0.048915811 0.02239437 0.69471431
0.048818447 0.02705694 0.69333154
-0.047626778 0.032926336 0.69310856
0.047695711 0.035918992 0.69411176
0.048736483 0.033469632 0.69216746
-0.046471491 0.042352945 0.69341719
0.04523455 0.041709777 0.69249177
-0.044139821 0.046493944 0.69375223
0.04418353 0.04418353 0.69443923
-0.040601272 0.051192909 0.69362646
0.041729547 0.049957909 0.69282001
-0.037064113 0.055890325 0.69350266
0.040668231 0.052456122 0.69477034
0.035886101 0.058241375 0.69347614
0.037189506 0.057260033 0.69584888
-0.032999851 0.061288528 0.69466156
0.03118502 0.061781641 0.69359386
0.032472558 0.06081225 0.69596744
-0.026537577 0.066045053 0.6951232
-0.022919497 0.067583129 0.69274843
0.026482414 0.065323286 0.69371349
-0.018274769 0.069556229 0.69485354
-0.014686314 0.071081758 0.69248104
0.017685486 0.071333796 0.69493634
0.021778319 0.068866573 0.6938374
-0.010018389 0.073064819 0.69458556
-0.0011788236 0.073640443 0.69445074
0.00058739836 0.073424794 0.69241714
0.0076687424 0.072558105 0.6953699
0.0094102137 0.072345436 0.69333184
0.08292754 0.078811146 0.6932897
0.083042786 0.081863031 0.69425321
0.081329688 0.086635157 0.69471627
0.065437198 0.091376267 0.69492316
0.077960141 0.090137936 0.69446033
0.067607835 0.092299387 0.69300163
0.070780963 0.09260565 0.69530106
0.072932661 0.09234269 0.69332671
-0.077395834 -0.040765747 0.69643629
-0.081156984 -0.037320364 0.69829738
-0.078809172 -0.039700862 0.69849002
-0.082191773 -0.034887157 0.69702548
-0.083259776 -0.031296227 0.69606727
-0.082530648 -0.025531063 0.69989926
0.0053384411 -0.024319565 0.69920903
-0.079358011 -0.021319063 0.69811755
-0.019554397 -0.020739513 0.69849867
-0.014769143 -0.021858333 0.69638658
-0.0041564689 -0.023157468 0.69994122
0.015956953 -0.020684941 0.6966607
-0.074068837 -0.018369071 0.69849062
-0.024285674 -0.017177671 0.69823462
0.024257472 -0.017157724 0.69742382
-0.029013392 -0.013618531 0.69797122
0.031336065 -0.013598669 0.6969533
-0.033737551 -0.010062076 0.69770813
0.034895483 -0.0088717332 0.69719183
-0.039015736 -0.0059120608 0.69684565
0.038457546 -0.0041415822 0.69743431
-0.042084001 0.00059273239 0.69870484
0.042022135 0.00059186108 0.69767773
0.045589212 0.0053286091 0.69792128
-0.045607757 0.0088846274 0.69820517
0.046813041 0.010667209 0.69851357
-0.04919254 0.018374715 0.69864452
0.047895551 0.019513002 0.69701999
-0.049121007 0.020713678 0.69762856
0.048048753 0.020761808 0.69924957
-0.048094817 0.029094394 0.69991988
-0.047893248 0.030745458 0.69698656
0.04913009 0.029597385 0.6977576
0.048602294 0.033786781 0.69869161
-0.046797853 0.039689317 0.69828695
0.04664908 0.038382154 0.69606704
-0.046666723 0.040759541 0.69633031
0.045596622 0.040859308 0.6980347
-0.045660213 0.044474233 0.69900823
-0.043120969 0.047846552 0.69630694
0.04312665 0.046671305 0.69639868
-0.042094585 0.049209163 0.69888055
0.042063784 0.049173158 0.6983692
-0.039049916 0.053252466 0.69746661
0.039600916 0.054968435 0.69673163
-0.036019512 0.057276927 0.69605422
-0.034967236 0.058673833 0.69862539
0.033768941 0.059836194 0.69835728
0.038501859 0.056271944 0.6982379
-0.031405896 0.063404351 0.69850641
0.029034402 0.063401654 0.69847667
-0.030177763 0.064497575 0.69751245
-0.024306789 0.066991881 0.69884169
0.023033967 0.067920677 0.69620836
0.026026128 0.065667011 0.69734108
-0.021885138 0.068021379 0.69724059
-0.016000699 0.070521608 0.69857061
-0.01359901 0.071542621 0.69697076
0.014809396 0.071685009 0.69835788
0.01956063 0.070536815 0.69872129
-0.010093769 0.073031388 0.69990569
-0.0057279579 0.074066475 0.69846839
-0.0029542886 0.073857218 0.696495
0.0053284871 0.072843887 0.69810885
0.082477272 0.07535693 0.69944662
0.083265498 0.082084432 0.69611514
0.081676349 0.085820705 0.69767737
0.063255399 0.090449303 0.69686538
0.07815285 0.08999294 0.69791532
0.080165401 0.088478856 0.69998431
0.069159344 0.09280356 0.69678706
0.075411953 0.092038207 0.69995731
-0.076904655 -0.041135047 0.70274538
-0.074997835 -0.042261161 0.70164621
-0.067443348 -0.042375907 0.70355129
-0.080905452 -0.037476815 0.70124662
-0.082619429 -0.03387991 0.70065218
-0.082934156 -0.028639683 0.70332122
-0.082213596 -0.025616014 0.70226908
0.0065651005 -0.02446992 0.70353186
-0.013671245 -0.021992873 0.70067292
0.010101362 -0.023173712 0.70043218
0.018440403 -0.019630106 0.70120305
0.026797818 -0.01607869 0.70197558
-0.030449085 -0.012537858 0.70378363
-0.035212021 -0.0089522088 0.70351607
0.033951573 -0.010125907 0.70213419
0.037538603 -0.0053626578 0.70238084
-0.041072976 -0.0017857816 0.70168495
0.041128159 -0.0005960603 0.70262772
-0.044612475 0.0065431627 0.70118099
0.04472024 0.0041738893 0.70287478
-0.048146859 0.014860142 0.70067728
-0.047158938 0.012535919 0.70367479
0.047038291 0.012503849 0.70187461
-0.04939742 0.018449638 0.70155424
0.04828053 0.022651082 0.70262253
-0.048298277 0.027427809 0.7028808
0.049366321 0.031523071 0.70111257
-0.046995781 0.038071692 0.7012403
0.046494506 0.038747825 0.70266783
0.044538256 0.043350566 0.70001447
-0.044639256 0.045829635 0.70160192
0.043473873 0.045856003 0.70200557
-0.041060586 0.05058188 0.7014733
0.04099489 0.051689208 0.70035094
-0.03748323 0.055332385 0.70134473
0.039919905 0.054219574 0.70234388
-0.036428403 0.056732759 0.70395577
0.035074256 0.05885341 0.70076358
0.036388598 0.057863835 0.70318657
-0.033373211 0.060790043 0.7025212
0.030972697 0.061942309 0.70209575
-0.029183621 0.064918667 0.70206636
-0.026739586 0.065957643 0.70045018
-0.023272382 0.067430235 0.7034145
0.026212331 0.065527231 0.70221645
-0.020837309 0.068465441 0.70179242
-0.018413439 0.069495887 0.70017779
-0.014912369 0.070982873 0.70313984
0.012490349 0.071968205 0.7011168
0.021450346 0.069113441 0.70233786
-0.012497515 0.072009496 0.70151907
-0.006537939 0.074294761 0.70062119
0.0017856602 0.073276542 0.70225519
0.01073727 0.07218229 0.70320243
0.082837813 0.078071758 0.70250416
0.082735866 0.083329812 0.70163965
0.081493385 0.086252123 0.7011919
0.062378999 0.089706942 0.7003001
0.064949863 0.091168158 0.70240378
0.077432692 0.09053541 0.70212233
0.067145161 0.092101775 0.7004407
0.071069345 0.092569314 0.70399642
0.073245853 0.092303127 0.70197201
-0.078329369 -0.040061586 0.70483655
-0.073526025 -0.042441852 0.70464611
-0.083051562 -0.032862127 0.70431685
-0.002987274 -0.023300737 0.70427155
-0.025682526 -0.016126236 0.70405138
-0.020912336 -0.019717345 0.7043193
-0.040053289 -0.0041846721 0.70469058
-0.043608677 0.0041816537 0.70418233
0.047189802 0.013738804 0.70413536
-0.047194779 0.036441538 0.70420963
-0.043610692 0.047195133 0.70421487
-0.040018886 0.051964819 0.70408529
0.042403415 0.048375729 0.70400798
-0.017338408 0.069951504 0.70476818
-0.0089646336 0.073509999 0.70449251
0.081843987 0.085428394 0.70420855
0.079455264 0.089013793 0.70421636
