# .PCD v0.7 - Point Cloud Data file format
VERSION 0.7
FIELDS x y z
SIZE 4 4 4
TYPE F F F
COUNT 1 1 1
WIDTH 1363
HEIGHT 1
VIEWPOINT 0 0 0 1 0 0 0
POINTS 1363
DATA ascii
-0.12467785 0.083687872 0.67108923
-0.12353924 0.083687872 0.67108923
-0.12240063 0.083687872 0.67108923
-0.12126201 0.083687872 0.67108923
-0.12012341 0.083687872 0.67108923
-0.1189848 0.083687872 0.67108923
-0.1178462 0.083687879 0.67108929
-0.11670759 0.083687879 0.67108929
-0.11556897 0.083687879 0.67108929
-0.11443036 0.083687879 0.67108929
-0.11329176 0.083687879 0.67108929
-0.11215314 0.083687879 0.67108929
-0.11101453 0.083687879 0.67108929
-0.10987592 0.083687879 0.67108929
-0.10873731 0.083687879 0.67108929
-0.1075987 0.083687879 0.67108929
-0.10646009 0.083687879 0.67108929
-0.10532148 0.083687879 0.67108929
-0.10418287 0.083687879 0.67108929
-0.10304426 0.083687879 0.67108929
-0.10190564 0.083687879 0.67108929
-0.10076704 0.083687879 0.67108929
-0.099628426 0.083687879 0.67108929
-0.098489814 0.083687879 0.67108929
-0.097351208 0.083687879 0.67108929
-0.096212596 0.083687879 0.67108929
-0.095073983 0.083687879 0.67108929
-0.09393537 0.083687879 0.67108929
-0.092946313 0.08382275 0.67217082
-0.092184693 0.084168635 0.67494446
-0.091416761 0.084517382 0.67774105
-0.09064243 0.084869027 0.68056089
-0.089861639 0.085223623 0.68340433
-0.089074291 0.085581183 0.68627161
-0.088280305 0.085941754 0.68916303
-0.087479606 0.08630538 0.69207895
-0.086672097 0.086672097 0.6950196
-0.085857622 0.087041862 0.69798476
-0.085036054 0.087414689 0.7009744
-0.084207423 0.08779072 0.7039898
-0.053218607 0.087900393 0.70486927
-0.051949367 0.087776519 0.7038759
-0.050683696 0.087652981 0.70288527
-0.04942159 0.087529801 0.7018975
-0.048163027 0.087406971 0.70091254
-0.046908032 0.087284565 0.69993097
-0.045656547 0.087162502 0.69895214
-0.04440856 0.087040782 0.69797605
-0.042653151 0.085890591 0.68875277
-0.040867977 0.084613979 0.67851567
-0.039282061 0.083687872 0.67108923
-0.038143452 0.083687872 0.67108923
-0.03700484 0.083687872 0.67108923
-0.035866231 0.083687872 0.67108923
-0.034727618 0.083687872 0.67108923
-0.033589009 0.083687872 0.67108923
-0.0324504 0.083687872 0.67108923
-0.031311788 0.083687872 0.67108923
-0.030173179 0.083687872 0.67108923
-0.029034568 0.083687872 0.67108923
-0.027895957 0.083687872 0.67108923
-0.026757346 0.083687872 0.67108923
-0.025618736 0.083687872 0.67108923
-0.024480125 0.083687872 0.67108923
-0.023341514 0.083687872 0.67108923
-0.022202905 0.083687872 0.67108923
-0.021064295 0.083687872 0.67108923
-0.019925684 0.083687872 0.67108923
-0.018787073 0.083687872 0.67108923
-0.17249949 0.084826484 0.67108923
-0.17136088 0.084826484 0.67108923
-0.17022227 0.084826484 0.67108923
-0.16908365 0.084826484 0.67108923
-0.16794504 0.084826484 0.67108923
-0.16680643 0.084826484 0.67108923
-0.16566783 0.084826484 0.67108923
-0.16452922 0.084826484 0.67108923
-0.16339061 0.084826484 0.67108923
-0.16225199 0.084826484 0.67108923
-0.16111338 0.084826484 0.67108923
-0.15997477 0.084826484 0.67108923
-0.15883616 0.084826484 0.67108923
-0.15769756 0.084826484 0.67108923
-0.15655895 0.084826484 0.67108923
-0.15542033 0.084826484 0.67108923
-0.15428172 0.084826484 0.67108923
-0.15314311 0.084826484 0.67108923
-0.1520045 0.084826484 0.67108923
-0.15086588 0.084826484 0.67108923
-0.14972728 0.084826484 0.67108923
-0.14858867 0.084826484 0.67108923
-0.14745006 0.084826484 0.67108923
-0.14631145 0.084826484 0.67108923
-0.14517283 0.084826484 0.67108923
-0.14403422 0.084826484 0.67108923
-0.14289561 0.084826484 0.67108923
-0.14175701 0.084826484 0.67108923
-0.1406184 0.084826484 0.67108923
-0.13947979 0.084826484 0.67108923
-0.13834119 0.084826492 0.67108929
-0.13720258 0.084826492 0.67108929
-0.13606395 0.084826484 0.67108923
-0.13492534 0.084826484 0.67108923
-0.13378674 0.084826484 0.67108923
-0.13264813 0.084826484 0.67108923
-0.13150951 0.084826484 0.67108923
-0.1303709 0.084826484 0.67108923
-0.12923229 0.084826484 0.67108923
-0.12809367 0.084826484 0.67108923
-0.12695506 0.084826484 0.67108923
-0.12581646 0.084826484 0.67108923
-0.12467785 0.084826484 0.67108923
-0.12353924 0.084826484 0.67108923
-0.12240064 0.084826492 0.67108929
-0.12126203 0.084826492 0.67108929
-0.12012342 0.084826492 0.67108929
-0.1189848 0.084826492 0.67108929
-0.1178462 0.084826492 0.67108929
-0.11670759 0.084826492 0.67108929
-0.11556897 0.084826492 0.67108929
-0.11443036 0.084826492 0.67108929
-0.11329176 0.084826492 0.67108929
-0.11215314 0.084826492 0.67108929
-0.11101453 0.084826492 0.67108929
-0.10987592 0.084826492 0.67108929
-0.10873731 0.084826492 0.67108929
-0.1075987 0.084826492 0.67108929
-0.10646009 0.084826492 0.67108929
-0.10532148 0.084826492 0.67108929
-0.10418287 0.084826492 0.67108929
-0.10304426 0.084826492 0.67108929
-0.10190564 0.084826492 0.67108929
-0.10076704 0.084826492 0.67108929
-0.099628426 0.084826492 0.67108929
-0.098489814 0.084826492 0.67108929
-0.097351208 0.084826492 0.67108929
-0.096212596 0.084826492 0.67108929
-0.095073983 0.084826492 0.67108929
-0.09393537 0.084826492 0.67108929
-0.092796765 0.084826492 0.67108929
-0.091658153 0.084826492 0.67108929
-0.090590224 0.084892727 0.67161334
-0.089819521 0.085242733 0.67438233
-0.08904244 0.085595638 0.67717427
-0.088258892 0.08595147 0.6799894
-0.087468803 0.086310275 0.68282801
-0.086672097 0.086672097 0.68569046
-0.085868672 0.087036952 0.688577
-0.085058458 0.087404899 0.69148791
-0.084241375 0.087775975 0.69442362
-0.083417311 0.088150211 0.6973843
-0.082586192 0.088527642 0.70037031
-0.08174777 0.088908158 0.7033807
-0.065154858 0.089064896 0.70462066
-0.063869245 0.088939421 0.703628
-0.062587254 0.088814296 0.70263809
-0.061308865 0.088689521 0.70165098
-0.060034059 0.088565096 0.70066661
-0.05876283 0.088441022 0.69968504
-0.057495154 0.088317297 0.69870621
-0.056231018 0.088193916 0.69773006
-0.054970413 0.088070877 0.69675666
-0.053713318 0.087948181 0.695786
-0.052459773 0.087825909 0.69481868
-0.051209714 0.087703995 0.69385415
-0.049963117 0.087582402 0.69289219
-0.048719972 0.087461159 0.69193298
-0.047480267 0.087340243 0.69097638
-0.046243984 0.087219663 0.69002247
-0.045011107 0.087099411 0.68907112
-0.043560073 0.086539343 0.68464023
-0.041772 0.085260659 0.67452413
-0.040420674 0.084826484 0.67108923
-0.039282061 0.084826484 0.67108923
-0.038143452 0.084826484 0.67108923
-0.03700484 0.084826484 0.67108923
-0.035866231 0.084826484 0.67108923
-0.034727618 0.084826484 0.67108923
-0.033589009 0.084826484 0.67108923
-0.0324504 0.084826484 0.67108923
-0.031311788 0.084826484 0.67108923
-0.030173179 0.084826484 0.67108923
-0.029034568 0.084826484 0.67108923
-0.027895957 0.084826484 0.67108923
-0.026757346 0.084826484 0.67108923
-0.025618736 0.084826484 0.67108923
-0.024480125 0.084826484 0.67108923
-0.023341514 0.084826484 0.67108923
-0.022202905 0.084826484 0.67108923
-0.021064295 0.084826484 0.67108923
-0.019925684 0.084826484 0.67108923
-0.17249949 0.085965089 0.67108923
-0.17136088 0.085965089 0.67108923
-0.17022227 0.085965089 0.67108923
-0.16908365 0.085965089 0.67108923
-0.16794504 0.085965089 0.67108923
-0.16680643 0.085965089 0.67108923
-0.16566783 0.085965089 0.67108923
-0.16452922 0.085965089 0.67108923
-0.16339061 0.085965089 0.67108923
-0.16225199 0.085965089 0.67108923
-0.16111338 0.085965089 0.67108923
-0.15997477 0.085965089 0.67108923
-0.15883616 0.085965089 0.67108923
-0.15769756 0.085965089 0.67108923
-0.15655895 0.085965089 0.67108923
-0.15542033 0.085965089 0.67108923
-0.15428172 0.085965089 0.67108923
-0.15314311 0.085965089 0.67108923
-0.1520045 0.085965089 0.67108923
-0.15086588 0.085965089 0.67108923
-0.14972728 0.085965089 0.67108923
-0.14858869 0.085965097 0.67108929
-0.14745007 0.085965097 0.67108929
-0.14631146 0.085965097 0.67108929
-0.14517285 0.085965097 0.67108929
-0.14403424 0.085965097 0.67108929
-0.14289562 0.085965097 0.67108929
-0.14175701 0.085965097 0.67108929
-0.14061841 0.085965097 0.67108929
-0.1394798 0.085965097 0.67108929
-0.13834119 0.085965097 0.67108929
-0.13720258 0.085965097 0.67108929
-0.13606396 0.085965097 0.67108929
-0.13492535 0.085965097 0.67108929
-0.13378674 0.085965089 0.67108923
-0.13264813 0.085965089 0.67108923
-0.13150951 0.085965089 0.67108923
-0.1303709 0.085965089 0.67108923
-0.12923229 0.085965089 0.67108923
-0.12809367 0.085965089 0.67108923
-0.12695508 0.085965097 0.67108929
-0.12581646 0.085965097 0.67108929
-0.12467786 0.085965097 0.67108929
-0.12353925 0.085965097 0.67108929
-0.12240064 0.085965097 0.67108929
-0.12126203 0.085965097 0.67108929
-0.12012342 0.085965097 0.67108929
-0.1189848 0.085965097 0.67108929
-0.1178462 0.085965097 0.67108929
-0.11670759 0.085965097 0.67108929
-0.11556897 0.085965097 0.67108929
-0.11443036 0.085965097 0.67108929
-0.11329176 0.085965097 0.67108929
-0.11215314 0.085965097 0.67108929
-0.11101453 0.085965097 0.67108929
-0.10987592 0.085965097 0.67108929
-0.10873731 0.085965097 0.67108929
-0.1075987 0.085965097 0.67108929
-0.10646009 0.085965097 0.67108929
-0.10532148 0.085965097 0.67108929
-0.10418287 0.085965097 0.67108929
-0.10304426 0.085965097 0.67108929
-0.10190564 0.085965097 0.67108929
-0.10076704 0.085965097 0.67108929
-0.099628426 0.085965097 0.67108929
-0.098489814 0.085965097 0.67108929
-0.097351208 0.085965097 0.67108929
-0.096212596 0.085965097 0.67108929
-0.095073983 0.085965097 0.67108929
-0.09393537 0.085965097 0.67108929
-0.092796765 0.085965097 0.67108929
-0.091658153 0.085965097 0.67108929
-0.09051954 0.085965097 0.67108929
-0.089380935 0.085965097 0.67108929
-0.088242322 0.085965097 0.67108929
-0.08745829 0.086315043 0.67382115
-0.08667209 0.08667209 0.67660844
-0.085879356 0.087032102 0.67941886
-0.085080005 0.087395109 0.68225271
-0.084273964 0.087761164 0.68511033
-0.083461143 0.088130295 0.68799198
-0.082641453 0.088502549 0.69089794
-0.081814803 0.088877954 0.69382858
-0.08098112 0.089256562 0.6967842
-0.0801403 0.089638405 0.69976509
-0.079292253 0.090023533 0.7027716
-0.077082686 0.090228572 0.70437223
-0.075780734 0.090101495 0.70338023
-0.074482441 0.089974783 0.70239103
-0.073187791 0.089848429 0.70140463
-0.071896777 0.089722425 0.70042098
-0.070609376 0.089596771 0.69944006
-0.069325574 0.089471474 0.69846189
-0.068045363 0.089346521 0.69748646
-0.066768721 0.089221925 0.69651377
-0.065495633 0.089097664 0.69554377
-0.064226091 0.088973761 0.6945765
-0.062960073 0.088850193 0.69361186
-0.061697561 0.088726968 0.6926499
-0.060438547 0.088604085 0.69169062
-0.059183024 0.088481545 0.69073403
-0.057931006 0.088359416 0.68978059
-0.056682456 0.088237643 0.68882996
-0.055437341 0.088116191 0.68788189
-0.054195654 0.08799509 0.6869365
-0.052957371 0.087874316 0.68599367
-0.051722482 0.08775387 0.68505341
-0.050490972 0.087633759 0.68411571
-0.049262833 0.087513976 0.68318063
-0.048038043 0.087394513 0.68224806
-0.046816595 0.087275378 0.68131804
-0.04559847 0.087156571 0.68039054
-0.04438366 0.087038085 0.67946559
-0.042697892 0.085965089 0.67108923
-0.041559283 0.085965089 0.67108923
-0.040420674 0.085965089 0.67108923
-0.039282061 0.085965089 0.67108923
-0.038143452 0.085965089 0.67108923
-0.03700484 0.085965089 0.67108923
-0.035866231 0.085965089 0.67108923
-0.034727618 0.085965089 0.67108923
-0.033589009 0.085965089 0.67108923
-0.0324504 0.085965089 0.67108923
-0.031311788 0.085965089 0.67108923
-0.030173179 0.085965089 0.67108923
-0.029034568 0.085965089 0.67108923
-0.027895957 0.085965089 0.67108923
-0.026757346 0.085965089 0.67108923
-0.025618736 0.085965089 0.67108923
-0.024480125 0.085965089 0.67108923
-0.023341514 0.085965089 0.67108923
-0.022202905 0.085965089 0.67108923
-0.021064295 0.085965089 0.67108923
-0.17249949 0.087103702 0.67108923
-0.17136088 0.087103702 0.67108923
-0.17022227 0.087103702 0.67108923
-0.16908365 0.087103702 0.67108923
-0.16794504 0.087103702 0.67108923
-0.16680643 0.087103702 0.67108923
-0.16566783 0.087103702 0.67108923
-0.16452922 0.087103702 0.67108923
-0.16339061 0.087103702 0.67108923
-0.16225199 0.087103702 0.67108923
-0.16111338 0.087103702 0.67108923
-0.15997478 0.08710371 0.67108929
-0.15883617 0.08710371 0.67108929
-0.15769757 0.08710371 0.67108929
-0.15655896 0.08710371 0.67108929
-0.15542035 0.08710371 0.67108929
-0.15428174 0.08710371 0.67108929
-0.15314312 0.08710371 0.67108929
-0.15200451 0.08710371 0.67108929
-0.1508659 0.08710371 0.67108929
-0.14972728 0.08710371 0.67108929
-0.14858869 0.08710371 0.67108929
-0.14745007 0.08710371 0.67108929
-0.14631146 0.08710371 0.67108929
-0.14517285 0.08710371 0.67108929
-0.14403424 0.08710371 0.67108929
-0.14289562 0.08710371 0.67108929
-0.14175701 0.08710371 0.67108929
-0.14061841 0.08710371 0.67108929
-0.1394798 0.08710371 0.67108929
-0.13834119 0.08710371 0.67108929
-0.13720258 0.08710371 0.67108929
-0.13606396 0.08710371 0.67108929
-0.13492535 0.08710371 0.67108929
-0.13378674 0.08710371 0.67108929
-0.13264814 0.08710371 0.67108929
-0.13150953 0.08710371 0.67108929
-0.13037091 0.08710371 0.67108929
-0.1292323 0.08710371 0.67108929
-0.12809369 0.08710371 0.67108929
-0.12695508 0.08710371 0.67108929
-0.12581646 0.08710371 0.67108929
-0.12467786 0.08710371 0.67108929
-0.12353925 0.08710371 0.67108929
-0.12240064 0.08710371 0.67108929
-0.12126203 0.08710371 0.67108929
-0.12012342 0.08710371 0.67108929
-0.1189848 0.08710371 0.67108929
-0.1178462 0.08710371 0.67108929
-0.11670759 0.08710371 0.67108929
-0.11556897 0.08710371 0.67108929
-0.11443036 0.08710371 0.67108929
-0.11329176 0.08710371 0.67108929
-0.11215314 0.08710371 0.67108929
-0.11101453 0.08710371 0.67108929
-0.10987592 0.08710371 0.67108929
-0.10873731 0.08710371 0.67108929
-0.1075987 0.08710371 0.67108929
-0.10646009 0.08710371 0.67108929
-0.10532148 0.08710371 0.67108929
-0.10418287 0.08710371 0.67108929
-0.10304426 0.08710371 0.67108929
-0.10190564 0.08710371 0.67108929
-0.10076704 0.08710371 0.67108929
-0.099628426 0.08710371 0.67108929
-0.098489814 0.08710371 0.67108929
-0.097351208 0.08710371 0.67108929
-0.096212596 0.08710371 0.67108929
-0.095073983 0.08710371 0.67108929
-0.09393537 0.08710371 0.67108929
-0.092796765 0.08710371 0.67108929
-0.091658153 0.08710371 0.67108929
-0.09051954 0.08710371 0.67108929
-0.089380935 0.08710371 0.67108929
-0.088242322 0.08710371 0.67108929
-0.08710371 0.08710371 0.67108929
-0.085965097 0.08710371 0.67108929
-0.085100986 0.08738558 0.67326093
-0.084305696 0.087746747 0.67604357
-0.083503805 0.088110916 0.67884928
-0.082695238 0.088478118 0.68167841
-0.081879891 0.08884839 0.68453115
-0.08105769 0.089221776 0.68740791
-0.08022856 0.08959832 0.69030899
-0.079392396 0.089978054 0.69323462
-0.078549117 0.090361014 0.69618517
-0.077269748 0.09024635 0.69530171
-0.075984269 0.090120882 0.69433504
-0.074702367 0.089995772 0.69337112
-0.073424026 0.089871004 0.69240987
-0.07214921 0.08974658 0.69145125
-0.070877932 0.089622505 0.69049531
-0.069610156 0.089498773 0.689542
-0.068345875 0.089375377 0.6885913
-0.06708508 0.089252323 0.68764323
-0.065827742 0.089129597 0.68669772
-0.064573869 0.089007229 0.6857549
-0.063323468 0.088885233 0.68481499
-0.062076516 0.088763617 0.683878
-0.060832966 0.088642322 0.68294352
-0.059592817 0.088521369 0.6820116
-0.058356043 0.088400744 0.68108225
-0.057122637 0.088280439 0.6801554
-0.055892587 0.08816047 0.67923111
-0.054665871 0.088040821 0.67830926
-0.053442482 0.087921508 0.67738998
-0.052222405 0.087802507 0.67647314
-0.051005624 0.087683827 0.67555881
-0.04979213 0.087565467 0.67464691
-0.048581906 0.087447427 0.67373747
-0.047374941 0.087329715 0.67283052
-0.046171222 0.087212302 0.67192596
-0.044975113 0.087103702 0.67108923
-0.043836504 0.087103702 0.67108923
-0.042697892 0.087103702 0.67108923
-0.041559283 0.087103702 0.67108923
-0.040420674 0.087103702 0.67108923
-0.039282061 0.087103702 0.67108923
-0.038143452 0.087103702 0.67108923
-0.03700484 0.087103702 0.67108923
-0.035866231 0.087103702 0.67108923
-0.034727618 0.087103702 0.67108923
-0.033589009 0.087103702 0.67108923
-0.0324504 0.087103702 0.67108923
-0.031311788 0.087103702 0.67108923
-0.030173179 0.087103702 0.67108923
-0.029034568 0.087103702 0.67108923
-0.027895957 0.087103702 0.67108923
-0.026757346 0.087103702 0.67108923
-0.025618736 0.087103702 0.67108923
-0.024480125 0.087103702 0.67108923
-0.023341514 0.087103702 0.67108923
-0.17363812 0.088242322 0.67108929
-0.17249951 0.088242322 0.67108929
-0.1713609 0.088242322 0.67108929
-0.17022228 0.088242322 0.67108929
-0.16908367 0.088242322 0.67108929
-0.16794506 0.088242322 0.67108929
-0.16680644 0.088242322 0.67108929
-0.16566785 0.088242322 0.67108929
-0.16452923 0.088242322 0.67108929
-0.16339062 0.088242322 0.67108929
-0.16225201 0.088242322 0.67108929
-0.1611134 0.088242322 0.67108929
-0.15997478 0.088242322 0.67108929
-0.15883617 0.088242322 0.67108929
-0.15769757 0.088242322 0.67108929
-0.15655896 0.088242322 0.67108929
-0.15542035 0.088242322 0.67108929
-0.15428174 0.088242322 0.67108929
-0.15314312 0.088242322 0.67108929
-0.15200451 0.088242322 0.67108929
-0.1508659 0.088242322 0.67108929
-0.14972728 0.088242322 0.67108929
-0.14858869 0.088242322 0.67108929
-0.14745007 0.088242322 0.67108929
-0.14631146 0.088242322 0.67108929
-0.14517285 0.088242322 0.67108929
-0.14403424 0.088242322 0.67108929
-0.14289562 0.088242322 0.67108929
-0.14175701 0.088242322 0.67108929
-0.14061841 0.088242322 0.67108929
-0.1394798 0.088242322 0.67108929
-0.13834119 0.088242322 0.67108929
-0.13720258 0.088242322 0.67108929
-0.13606396 0.088242322 0.67108929
-0.13492535 0.088242322 0.67108929
-0.13378674 0.088242322 0.67108929
-0.13264814 0.088242322 0.67108929
-0.13150953 0.088242322 0.67108929
-0.13037091 0.088242322 0.67108929
-0.1292323 0.088242322 0.67108929
-0.12809369 0.088242322 0.67108929
-0.12695508 0.088242322 0.67108929
-0.12581646 0.088242322 0.67108929
-0.12467786 0.088242322 0.67108929
-0.12353925 0.088242322 0.67108929
-0.12240064 0.088242322 0.67108929
-0.12126203 0.088242322 0.67108929
-0.12012342 0.088242322 0.67108929
-0.1189848 0.088242322 0.67108929
-0.1178462 0.088242322 0.67108929
-0.11670759 0.088242322 0.67108929
-0.11556897 0.088242322 0.67108929
-0.11443036 0.088242322 0.67108929
-0.11329176 0.088242322 0.67108929
-0.11215314 0.088242322 0.67108929
-0.11101453 0.088242322 0.67108929
-0.10987592 0.088242322 0.67108929
-0.10873731 0.088242322 0.67108929
-0.1075987 0.088242322 0.67108929
-0.10646009 0.088242322 0.67108929
-0.10532148 0.088242322 0.67108929
-0.10418287 0.088242322 0.67108929
-0.10304426 0.088242322 0.67108929
-0.10190564 0.088242322 0.67108929
-0.10076704 0.088242322 0.67108929
-0.099628426 0.088242322 0.67108929
-0.098489814 0.088242322 0.67108929
-0.097351208 0.088242322 0.67108929
-0.096212596 0.088242322 0.67108929
-0.095073983 0.088242322 0.67108929
-0.09393537 0.088242322 0.67108929
-0.092796765 0.088242322 0.67108929
-0.091658153 0.088242322 0.67108929
-0.09051954 0.088242322 0.67108929
-0.089380935 0.088242322 0.67108929
-0.088242322 0.088242322 0.67108929
-0.08710371 0.088242322 0.67108929
-0.085965097 0.088242322 0.67108929
-0.084826492 0.088242322 0.67108929
-0.083687879 0.088242322 0.67108929
-0.082747601 0.088454336 0.67270166
-0.081943259 0.088819616 0.67547965
-0.081132241 0.08918792 0.67828065
-0.080314472 0.089559302 0.68110502
-0.079489857 0.089933783 0.68395299
-0.078658327 0.090311415 0.68682492
-0.077452056 0.090263672 0.68646181
-0.076182649 0.090139776 0.68551958
-0.07491672 0.090016216 0.68457991
-0.073654272 0.089893006 0.68364286
-0.072395265 0.089770131 0.68270838
-0.071139693 0.089647584 0.6817764
-0.069887549 0.089525372 0.68084699
-0.068638846 0.08940354 0.67992043
-0.067393571 0.089282081 0.67899674
-0.066151671 0.089160949 0.67807555
-0.064913146 0.089040153 0.67715687
-0.063677967 0.088919684 0.67624068
-0.062446125 0.088799536 0.67532694
-0.06121761 0.088679716 0.67441571
-0.059992407 0.088560216 0.67350692
-0.058770496 0.088441037 0.67260057
-0.057551876 0.088322185 0.67169666
-0.056361221 0.088242315 0.67108923
-0.055222608 0.088242315 0.67108923
-0.054083999 0.088242315 0.67108923
-0.052945387 0.088242315 0.67108923
-0.051806778 0.088242315 0.67108923
-0.050668165 0.088242315 0.67108923
-0.049529556 0.088242315 0.67108923
-0.048390947 0.088242315 0.67108923
-0.047252335 0.088242315 0.67108923
-0.046113726 0.088242315 0.67108923
-0.044975113 0.088242315 0.67108923
-0.043836504 0.088242315 0.67108923
-0.042697892 0.088242315 0.67108923
-0.041559283 0.088242315 0.67108923
-0.040420674 0.088242315 0.67108923
-0.039282061 0.088242315 0.67108923
-0.038143452 0.088242315 0.67108923
-0.03700484 0.088242315 0.67108923
-0.035866231 0.088242315 0.67108923
-0.034727618 0.088242315 0.67108923
-0.033589009 0.088242315 0.67108923
-0.0324504 0.088242315 0.67108923
-0.031311788 0.088242315 0.67108923
-0.030173179 0.088242315 0.67108923
-0.02903457 0.088242322 0.67108929
-0.027895959 0.088242322 0.67108929
-0.026757348 0.088242322 0.67108929
-0.025618738 0.088242322 0.67108929
-0.024480127 0.088242322 0.67108929
-0.17363812 0.089380935 0.67108929
-0.17249951 0.089380935 0.67108929
-0.1713609 0.089380935 0.67108929
-0.17022228 0.089380935 0.67108929
-0.16908367 0.089380935 0.67108929
-0.16794506 0.089380935 0.67108929
-0.16680644 0.089380935 0.67108929
-0.16566785 0.089380935 0.67108929
-0.16452923 0.089380935 0.67108929
-0.16339062 0.089380935 0.67108929
-0.16225201 0.089380935 0.67108929
-0.1611134 0.089380935 0.67108929
-0.15997478 0.089380935 0.67108929
-0.15883617 0.089380935 0.67108929
-0.15769757 0.089380935 0.67108929
-0.15655896 0.089380935 0.67108929
-0.15542035 0.089380935 0.67108929
-0.15428174 0.089380935 0.67108929
-0.15314312 0.089380935 0.67108929
-0.15200451 0.089380935 0.67108929
-0.1508659 0.089380935 0.67108929
-0.14972728 0.089380935 0.67108929
-0.14858869 0.089380935 0.67108929
-0.14745007 0.089380935 0.67108929
-0.14631146 0.089380935 0.67108929
-0.14517285 0.089380935 0.67108929
-0.14403424 0.089380935 0.67108929
-0.14289562 0.089380935 0.67108929
-0.14175701 0.089380935 0.67108929
-0.14061841 0.089380935 0.67108929
-0.1394798 0.089380935 0.67108929
-0.13834119 0.089380935 0.67108929
-0.13720258 0.089380935 0.67108929
-0.13606396 0.089380935 0.67108929
-0.13492535 0.089380935 0.67108929
-0.13378674 0.089380935 0.67108929
-0.13264814 0.089380935 0.67108929
-0.13150953 0.089380935 0.67108929
-0.13037091 0.089380935 0.67108929
-0.1292323 0.089380935 0.67108929
-0.12809369 0.089380935 0.67108929
-0.12695508 0.089380935 0.67108929
-0.12581646 0.089380935 0.67108929
-0.12467786 0.089380935 0.67108929
-0.12353925 0.089380935 0.67108929
-0.12240064 0.089380935 0.67108929
-0.12126203 0.089380935 0.67108929
-0.12012342 0.089380935 0.67108929
-0.1189848 0.089380935 0.67108929
-0.1178462 0.089380935 0.67108929
-0.11670759 0.089380935 0.67108929
-0.11556897 0.089380935 0.67108929
-0.11443036 0.089380935 0.67108929
-0.11329176 0.089380935 0.67108929
-0.11215314 0.089380935 0.67108929
-0.11101453 0.089380935 0.67108929
-0.10987592 0.089380935 0.67108929
-0.10873731 0.089380935 0.67108929
-0.1075987 0.089380935 0.67108929
-0.10646009 0.089380935 0.67108929
-0.10532148 0.089380935 0.67108929
-0.10418287 0.089380935 0.67108929
-0.10304426 0.089380935 0.67108929
-0.10190564 0.089380935 0.67108929
-0.10076704 0.089380935 0.67108929
-0.099628426 0.089380935 0.67108929
-0.098489814 0.089380935 0.67108929
-0.097351208 0.089380935 0.67108929
-0.096212596 0.089380935 0.67108929
-0.095073983 0.089380935 0.67108929
-0.09393537 0.089380935 0.67108929
-0.092796765 0.089380935 0.67108929
-0.091658153 0.089380935 0.67108929
-0.09051954 0.089380935 0.67108929
-0.089380935 0.089380935 0.67108929
-0.088242322 0.089380935 0.67108929
-0.08710371 0.089380935 0.67108929
-0.085965097 0.089380935 0.67108929
-0.084826492 0.089380935 0.67108929
-0.083687879 0.089380935 0.67108929
-0.082549267 0.089380935 0.67108929
-0.081410654 0.089380935 0.67108929
-0.08039812 0.089521311 0.67214328
-0.079584748 0.089890689 0.67491663
-0.07876464 0.090263128 0.67771298
-0.077629782 0.090280555 0.67784387
-0.076376051 0.090158194 0.67692512
-0.075125717 0.090036161 0.67600888
-0.07387878 0.089914486 0.67509532
-0.072635263 0.089793198 0.67418468
-0.071395092 0.089672238 0.67327648
-0.070158266 0.089551613 0.67237079
-0.068924762 0.089431301 0.67146748
-0.067747332 0.089380935 0.67108929
-0.06660872 0.089380935 0.67108929
-0.065470107 0.089380935 0.67108929
-0.064331502 0.089380935 0.67108929
-0.063192889 0.089380935 0.67108929
-0.062054276 0.089380935 0.67108929
-0.060915668 0.089380935 0.67108929
-0.059777055 0.089380935 0.67108929
-0.058638446 0.089380935 0.67108929
-0.057499833 0.089380935 0.67108929
-0.056361225 0.089380935 0.67108929
-0.055222612 0.089380935 0.67108929
-0.054083999 0.08938092 0.67108923
-0.052945387 0.08938092 0.67108923
-0.051806778 0.08938092 0.67108923
-0.050668165 0.08938092 0.67108923
-0.049529556 0.08938092 0.67108923
-0.048390947 0.08938092 0.67108923
-0.047252335 0.08938092 0.67108923
-0.046113726 0.08938092 0.67108923
-0.044975113 0.08938092 0.67108923
-0.043836504 0.08938092 0.67108923
-0.042697892 0.08938092 0.67108923
-0.041559283 0.08938092 0.67108923
-0.040420674 0.08938092 0.67108923
-0.039282061 0.08938092 0.67108923
-0.038143452 0.08938092 0.67108923
-0.03700484 0.08938092 0.67108923
-0.035866234 0.089380935 0.67108929
-0.034727622 0.089380935 0.67108929
-0.033589013 0.089380935 0.67108929
-0.0324504 0.089380935 0.67108929
-0.031311791 0.089380935 0.67108929
-0.030173181 0.089380935 0.67108929
-0.02903457 0.089380935 0.67108929
-0.027895959 0.089380935 0.67108929
-0.026757348 0.089380935 0.67108929
-0.025618738 0.089380935 0.67108929
-0.17363812 0.09051954 0.67108929
-0.17249951 0.09051954 0.67108929
-0.1713609 0.09051954 0.67108929
-0.17022228 0.09051954 0.67108929
-0.16908367 0.09051954 0.67108929
-0.16794506 0.09051954 0.67108929
-0.16680644 0.09051954 0.67108929
-0.16566785 0.09051954 0.67108929
-0.16452923 0.09051954 0.67108929
-0.16339062 0.09051954 0.67108929
-0.16225201 0.09051954 0.67108929
-0.1611134 0.09051954 0.67108929
-0.15997478 0.09051954 0.67108929
-0.15883617 0.09051954 0.67108929
-0.15769757 0.09051954 0.67108929
-0.15655896 0.09051954 0.67108929
-0.15542035 0.09051954 0.67108929
-0.15428174 0.09051954 0.67108929
-0.15314312 0.09051954 0.67108929
-0.15200451 0.09051954 0.67108929
-0.1508659 0.09051954 0.67108929
-0.14972728 0.09051954 0.67108929
-0.14858869 0.09051954 0.67108929
-0.14745007 0.09051954 0.67108929
-0.14631146 0.09051954 0.67108929
-0.14517285 0.09051954 0.67108929
-0.14403424 0.09051954 0.67108929
-0.14289562 0.09051954 0.67108929
-0.14175701 0.09051954 0.67108929
-0.14061841 0.09051954 0.67108929
-0.1394798 0.09051954 0.67108929
-0.13834119 0.09051954 0.67108929
-0.13720258 0.09051954 0.67108929
-0.13606396 0.09051954 0.67108929
-0.13492535 0.09051954 0.67108929
-0.13378674 0.09051954 0.67108929
-0.13264814 0.09051954 0.67108929
-0.13150953 0.09051954 0.67108929
-0.13037091 0.09051954 0.67108929
-0.1292323 0.09051954 0.67108929
-0.12809369 0.09051954 0.67108929
-0.12695508 0.09051954 0.67108929
-0.12581646 0.09051954 0.67108929
-0.12467786 0.09051954 0.67108929
-0.12353925 0.09051954 0.67108929
-0.12240064 0.09051954 0.67108929
-0.12126203 0.09051954 0.67108929
-0.12012342 0.09051954 0.67108929
-0.1189848 0.09051954 0.67108929
-0.1178462 0.09051954 0.67108929
-0.11670759 0.09051954 0.67108929
-0.11556897 0.09051954 0.67108929
-0.11443036 0.09051954 0.67108929
-0.11329176 0.09051954 0.67108929
-0.11215314 0.09051954 0.67108929
-0.11101453 0.09051954 0.67108929
-0.10987592 0.09051954 0.67108929
-0.10873731 0.09051954 0.67108929
-0.1075987 0.09051954 0.67108929
-0.10646009 0.09051954 0.67108929
-0.10532148 0.09051954 0.67108929
-0.10418287 0.09051954 0.67108929
-0.10304426 0.09051954 0.67108929
-0.10190564 0.09051954 0.67108929
-0.10076704 0.09051954 0.67108929
-0.099628426 0.09051954 0.67108929
-0.098489814 0.09051954 0.67108929
-0.097351208 0.09051954 0.67108929
-0.096212596 0.09051954 0.67108929
-0.095073983 0.09051954 0.67108929
-0.09393537 0.09051954 0.67108929
-0.092796765 0.09051954 0.67108929
-0.091658153 0.09051954 0.67108929
-0.09051954 0.09051954 0.67108929
-0.089380935 0.09051954 0.67108929
-0.088242322 0.09051954 0.67108929
-0.08710371 0.09051954 0.67108929
-0.085965097 0.09051954 0.67108929
-0.084826492 0.09051954 0.67108929
-0.083687879 0.09051954 0.67108929
-0.082549267 0.09051954 0.67108929
-0.081410654 0.09051954 0.67108929
-0.080272049 0.09051954 0.67108929
-0.079133436 0.09051954 0.67108929
-0.077994823 0.09051954 0.67108929
-0.076856218 0.09051954 0.67108929
-0.075717606 0.09051954 0.67108929
-0.074578993 0.09051954 0.67108929
-0.07344038 0.09051954 0.67108929
-0.072301775 0.09051954 0.67108929
-0.071163163 0.09051954 0.67108929
-0.07002455 0.09051954 0.67108929
-0.068885937 0.09051954 0.67108929
-0.067747332 0.09051954 0.67108929
-0.06660872 0.09051954 0.67108929
-0.065470107 0.09051954 0.67108929
-0.064331502 0.09051954 0.67108929
-0.063192889 0.09051954 0.67108929
-0.062054276 0.09051954 0.67108929
-0.060915668 0.09051954 0.67108929
-0.059777055 0.09051954 0.67108929
-0.058638446 0.09051954 0.67108929
-0.057499833 0.09051954 0.67108929
-0.056361225 0.09051954 0.67108929
-0.055222612 0.09051954 0.67108929
-0.054084003 0.09051954 0.67108929
-0.052945394 0.09051954 0.67108929
-0.051806781 0.09051954 0.67108929
-0.050668173 0.09051954 0.67108929
-0.04952956 0.09051954 0.67108929
-0.048390951 0.09051954 0.67108929
-0.047252338 0.09051954 0.67108929
-0.046113729 0.09051954 0.67108929
-0.044975117 0.09051954 0.67108929
-0.043836508 0.09051954 0.67108929
-0.042697895 0.09051954 0.67108929
-0.041559286 0.09051954 0.67108929
-0.040420678 0.09051954 0.67108929
-0.039282065 0.09051954 0.67108929
-0.038143456 0.09051954 0.67108929
-0.037004843 0.09051954 0.67108929
-0.035866234 0.09051954 0.67108929
-0.034727622 0.09051954 0.67108929
-0.033589013 0.09051954 0.67108929
-0.0324504 0.09051954 0.67108929
-0.031311791 0.09051954 0.67108929
-0.030173181 0.09051954 0.67108929
-0.02903457 0.09051954 0.67108929
-0.027895959 0.09051954 0.67108929
-0.026757348 0.09051954 0.67108929
-0.17477672 0.091658153 0.67108929
-0.17363812 0.091658153 0.67108929
-0.17249951 0.091658153 0.67108929
-0.1713609 0.091658153 0.67108929
-0.17022228 0.091658153 0.67108929
-0.16908367 0.091658153 0.67108929
-0.16794506 0.091658153 0.67108929
-0.16680644 0.091658153 0.67108929
-0.16566785 0.091658153 0.67108929
-0.16452923 0.091658153 0.67108929
-0.16339062 0.091658153 0.67108929
-0.16225201 0.091658153 0.67108929
-0.1611134 0.091658153 0.67108929
-0.15997478 0.091658153 0.67108929
-0.15883617 0.091658153 0.67108929
-0.15769757 0.091658153 0.67108929
-0.15655896 0.091658153 0.67108929
-0.15542035 0.091658153 0.67108929
-0.15428174 0.091658153 0.67108929
-0.15314312 0.091658153 0.67108929
-0.15200451 0.091658153 0.67108929
-0.1508659 0.091658153 0.67108929
-0.14972728 0.091658153 0.67108929
-0.14858869 0.091658153 0.67108929
-0.14745007 0.091658153 0.67108929
-0.14631146 0.091658153 0.67108929
-0.14517285 0.091658153 0.67108929
-0.14403424 0.091658153 0.67108929
-0.14289562 0.091658153 0.67108929
-0.14175701 0.091658153 0.67108929
-0.14061841 0.091658153 0.67108929
-0.1394798 0.091658153 0.67108929
-0.13834119 0.091658153 0.67108929
-0.13720258 0.091658153 0.67108929
-0.13606396 0.091658153 0.67108929
-0.13492535 0.091658153 0.67108929
-0.13378674 0.091658153 0.67108929
-0.13264814 0.091658153 0.67108929
-0.13150953 0.091658153 0.67108929
-0.13037091 0.091658153 0.67108929
-0.1292323 0.091658153 0.67108929
-0.12809369 0.091658153 0.67108929
-0.12695508 0.091658153 0.67108929
-0.12581646 0.091658153 0.67108929
-0.12467786 0.091658153 0.67108929
-0.12353925 0.091658153 0.67108929
-0.12240064 0.091658153 0.67108929
-0.12126203 0.091658153 0.67108929
-0.12012342 0.091658153 0.67108929
-0.1189848 0.091658153 0.67108929
-0.1178462 0.091658153 0.67108929
-0.11670759 0.091658153 0.67108929
-0.11556897 0.091658153 0.67108929
-0.11443036 0.091658153 0.67108929
-0.11329176 0.091658153 0.67108929
-0.11215314 0.091658153 0.67108929
-0.11101453 0.091658153 0.67108929
-0.10987592 0.091658153 0.67108929
-0.10873731 0.091658153 0.67108929
-0.1075987 0.091658153 0.67108929
-0.10646009 0.091658153 0.67108929
-0.10532148 0.091658153 0.67108929
-0.10418287 0.091658153 0.67108929
-0.10304426 0.091658153 0.67108929
-0.10190564 0.091658153 0.67108929
-0.10076704 0.091658153 0.67108929
-0.099628426 0.091658153 0.67108929
-0.098489814 0.091658153 0.67108929
-0.097351208 0.091658153 0.67108929
-0.096212596 0.091658153 0.67108929
-0.095073983 0.091658153 0.67108929
-0.09393537 0.091658153 0.67108929
-0.092796765 0.091658153 0.67108929
-0.091658153 0.091658153 0.67108929
-0.09051954 0.091658153 0.67108929
-0.089380935 0.091658153 0.67108929
-0.088242322 0.091658153 0.67108929
-0.08710371 0.091658153 0.67108929
-0.085965097 0.091658153 0.67108929
-0.084826492 0.091658153 0.67108929
-0.083687879 0.091658153 0.67108929
-0.082549267 0.091658153 0.67108929
-0.081410654 0.091658153 0.67108929
-0.080272049 0.091658153 0.67108929
-0.079133436 0.091658153 0.67108929
-0.077994823 0.091658153 0.67108929
-0.076856218 0.091658153 0.67108929
-0.075717606 0.091658153 0.67108929
-0.074578993 0.091658153 0.67108929
-0.07344038 0.091658153 0.67108929
-0.072301775 0.091658153 0.67108929
-0.071163163 0.091658153 0.67108929
-0.07002455 0.091658153 0.67108929
-0.068885937 0.091658153 0.67108929
-0.067747332 0.091658153 0.67108929
-0.06660872 0.091658153 0.67108929
-0.065470107 0.091658153 0.67108929
-0.064331502 0.091658153 0.67108929
-0.063192889 0.091658153 0.67108929
-0.062054276 0.091658153 0.67108929
-0.060915668 0.091658153 0.67108929
-0.059777055 0.091658153 0.67108929
-0.058638446 0.091658153 0.67108929
-0.057499833 0.091658153 0.67108929
-0.056361225 0.091658153 0.67108929
-0.055222612 0.091658153 0.67108929
-0.054084003 0.091658153 0.67108929
-0.052945394 0.091658153 0.67108929
-0.051806781 0.091658153 0.67108929
-0.050668173 0.091658153 0.67108929
-0.04952956 0.091658153 0.67108929
-0.048390951 0.091658153 0.67108929
-0.047252338 0.091658153 0.67108929
-0.046113729 0.091658153 0.67108929
-0.044975117 0.091658153 0.67108929
-0.043836508 0.091658153 0.67108929
-0.042697895 0.091658153 0.67108929
-0.041559286 0.091658153 0.67108929
-0.040420678 0.091658153 0.67108929
-0.039282065 0.091658153 0.67108929
-0.038143456 0.091658153 0.67108929
-0.037004843 0.091658153 0.67108929
-0.035866234 0.091658153 0.67108929
-0.034727622 0.091658153 0.67108929
-0.033589013 0.091658153 0.67108929
-0.0324504 0.091658153 0.67108929
-0.031311791 0.091658153 0.67108929
-0.030173181 0.091658153 0.67108929
-0.02903457 0.091658153 0.67108929
-0.027895959 0.091658153 0.67108929
-0.17477672 0.092796765 0.67108929
-0.17363812 0.092796765 0.67108929
-0.17249951 0.092796765 0.67108929
-0.1713609 0.092796765 0.67108929
-0.17022228 0.092796765 0.67108929
-0.16908367 0.092796765 0.67108929
-0.16794506 0.092796765 0.67108929
-0.16680644 0.092796765 0.67108929
-0.16566785 0.092796765 0.67108929
-0.16452923 0.092796765 0.67108929
-0.16339062 0.092796765 0.67108929
-0.16225201 0.092796765 0.67108929
-0.1611134 0.092796765 0.67108929
-0.15997478 0.092796765 0.67108929
-0.15883617 0.092796765 0.67108929
-0.15769757 0.092796765 0.67108929
-0.15655896 0.092796765 0.67108929
-0.15542035 0.092796765 0.67108929
-0.15428174 0.092796765 0.67108929
-0.15314312 0.092796765 0.67108929
-0.15200451 0.092796765 0.67108929
-0.1508659 0.092796765 0.67108929
-0.14972728 0.092796765 0.67108929
-0.14858869 0.092796765 0.67108929
-0.14745007 0.092796765 0.67108929
-0.14631146 0.092796765 0.67108929
-0.14517285 0.092796765 0.67108929
-0.14403424 0.092796765 0.67108929
-0.14289562 0.092796765 0.67108929
-0.14175701 0.092796765 0.67108929
-0.14061841 0.092796765 0.67108929
-0.1394798 0.092796765 0.67108929
-0.13834119 0.092796765 0.67108929
-0.13720258 0.092796765 0.67108929
-0.13606396 0.092796765 0.67108929
-0.13492535 0.092796765 0.67108929
-0.13378674 0.092796765 0.67108929
-0.13264814 0.092796765 0.67108929
-0.13150953 0.092796765 0.67108929
-0.13037091 0.092796765 0.67108929
-0.1292323 0.092796765 0.67108929
-0.12809369 0.092796765 0.67108929
-0.12695508 0.092796765 0.67108929
-0.12581646 0.092796765 0.67108929
-0.12467786 0.092796765 0.67108929
-0.12353925 0.092796765 0.67108929
-0.12240064 0.092796765 0.67108929
-0.12126203 0.092796765 0.67108929
-0.12012342 0.092796765 0.67108929
-0.1189848 0.092796765 0.67108929
-0.1178462 0.092796765 0.67108929
-0.11670759 0.092796765 0.67108929
-0.11556897 0.092796765 0.67108929
-0.11443036 0.092796765 0.67108929
-0.11329176 0.092796765 0.67108929
-0.11215314 0.092796765 0.67108929
-0.11101453 0.092796765 0.67108929
-0.10987592 0.092796765 0.67108929
-0.10873731 0.092796765 0.67108929
-0.1075987 0.092796765 0.67108929
-0.10646009 0.092796765 0.67108929
-0.10532148 0.092796765 0.67108929
-0.10418287 0.092796765 0.67108929
-0.10304426 0.092796765 0.67108929
-0.10190564 0.092796765 0.67108929
-0.10076704 0.092796765 0.67108929
-0.099628426 0.092796765 0.67108929
-0.098489814 0.092796765 0.67108929
-0.097351208 0.092796765 0.67108929
-0.096212596 0.092796765 0.67108929
-0.095073983 0.092796765 0.67108929
-0.09393537 0.092796765 0.67108929
-0.092796765 0.092796765 0.67108929
-0.091658153 0.092796765 0.67108929
-0.09051954 0.092796765 0.67108929
-0.089380935 0.092796765 0.67108929
-0.088242322 0.092796765 0.67108929
-0.08710371 0.092796765 0.67108929
-0.085965097 0.092796765 0.67108929
-0.084826492 0.092796765 0.67108929
-0.083687879 0.092796765 0.67108929
-0.082549267 0.092796765 0.67108929
-0.081410654 0.092796765 0.67108929
-0.080272049 0.092796765 0.67108929
-0.079133436 0.092796765 0.67108929
-0.077994823 0.092796765 0.67108929
-0.076856218 0.092796765 0.67108929
-0.075717606 0.092796765 0.67108929
-0.074578993 0.092796765 0.67108929
-0.07344038 0.092796765 0.67108929
-0.072301775 0.092796765 0.67108929
-0.071163163 0.092796765 0.67108929
-0.07002455 0.092796765 0.67108929
-0.068885937 0.092796765 0.67108929
-0.067747332 0.092796765 0.67108929
-0.06660872 0.092796765 0.67108929
-0.065470107 0.092796765 0.67108929
-0.064331502 0.092796765 0.67108929
-0.063192889 0.092796765 0.67108929
-0.062054276 0.092796765 0.67108929
-0.060915668 0.092796765 0.67108929
-0.059777055 0.092796765 0.67108929
-0.058638446 0.092796765 0.67108929
-0.057499833 0.092796765 0.67108929
-0.056361225 0.092796765 0.67108929
-0.055222612 0.092796765 0.67108929
-0.054084003 0.092796765 0.67108929
-0.052945394 0.092796765 0.67108929
-0.051806781 0.092796765 0.67108929
-0.050668173 0.092796765 0.67108929
-0.04952956 0.092796765 0.67108929
-0.048390951 0.092796765 0.67108929
-0.047252338 0.092796765 0.67108929
-0.046113729 0.092796765 0.67108929
-0.044975117 0.092796765 0.67108929
-0.043836508 0.092796765 0.67108929
-0.042697895 0.092796765 0.67108929
-0.041559286 0.092796765 0.67108929
-0.040420678 0.092796765 0.67108929
-0.039282065 0.092796765 0.67108929
-0.038143456 0.092796765 0.67108929
-0.037004843 0.092796765 0.67108929
-0.035866234 0.092796765 0.67108929
-0.034727622 0.092796765 0.67108929
-0.033589013 0.092796765 0.67108929
-0.0324504 0.092796765 0.67108929
-0.031311791 0.092796765 0.67108929
-0.030173181 0.092796765 0.67108929
-0.17477672 0.09393537 0.67108929
-0.17363812 0.09393537 0.67108929
-0.17249951 0.09393537 0.67108929
-0.1713609 0.09393537 0.67108929
-0.17022228 0.09393537 0.67108929
-0.16908367 0.09393537 0.67108929
-0.16794506 0.09393537 0.67108929
-0.16680644 0.09393537 0.67108929
-0.16566785 0.09393537 0.67108929
-0.16452923 0.09393537 0.67108929
-0.16339062 0.09393537 0.67108929
-0.16225201 0.09393537 0.67108929
-0.1611134 0.09393537 0.67108929
-0.15997478 0.09393537 0.67108929
-0.15883617 0.09393537 0.67108929
-0.15769757 0.09393537 0.67108929
-0.15655896 0.09393537 0.67108929
-0.15542035 0.09393537 0.67108929
-0.15428174 0.09393537 0.67108929
-0.15314312 0.09393537 0.67108929
-0.15200451 0.09393537 0.67108929
-0.1508659 0.09393537 0.67108929
-0.14972728 0.09393537 0.67108929
-0.14858869 0.09393537 0.67108929
-0.14745007 0.09393537 0.67108929
-0.14631146 0.09393537 0.67108929
-0.14517285 0.09393537 0.67108929
-0.14403424 0.09393537 0.67108929
-0.14289562 0.09393537 0.67108929
-0.14175701 0.09393537 0.67108929
-0.14061841 0.09393537 0.67108929
-0.1394798 0.09393537 0.67108929
-0.13834119 0.09393537 0.67108929
-0.13720258 0.09393537 0.67108929
-0.13606396 0.09393537 0.67108929
-0.13492535 0.09393537 0.67108929
-0.13378674 0.09393537 0.67108929
-0.13264814 0.09393537 0.67108929
-0.13150953 0.09393537 0.67108929
-0.13037091 0.09393537 0.67108929
-0.1292323 0.09393537 0.67108929
-0.12809369 0.09393537 0.67108929
-0.12695508 0.09393537 0.67108929
-0.12581646 0.09393537 0.67108929
-0.12467786 0.09393537 0.67108929
-0.12353925 0.09393537 0.67108929
-0.12240064 0.09393537 0.67108929
-0.12126203 0.09393537 0.67108929
-0.12012342 0.09393537 0.67108929
-0.1189848 0.09393537 0.67108929
-0.1178462 0.09393537 0.67108929
-0.11670759 0.09393537 0.67108929
-0.11556897 0.09393537 0.67108929
-0.11443036 0.09393537 0.67108929
-0.11329176 0.09393537 0.67108929
-0.11215314 0.09393537 0.67108929
-0.11101453 0.09393537 0.67108929
-0.10987592 0.09393537 0.67108929
-0.10873731 0.09393537 0.67108929
-0.1075987 0.09393537 0.67108929
-0.10646009 0.09393537 0.67108929
-0.10532148 0.09393537 0.67108929
-0.10418287 0.09393537 0.67108929
-0.10304426 0.09393537 0.67108929
-0.10190564 0.09393537 0.67108929
-0.10076704 0.09393537 0.67108929
-0.099628426 0.09393537 0.67108929
-0.098489814 0.09393537 0.67108929
-0.097351208 0.09393537 0.67108929
-0.096212596 0.09393537 0.67108929
-0.095073983 0.09393537 0.67108929
-0.09393537 0.09393537 0.67108929
-0.092796765 0.09393537 0.67108929
-0.091658153 0.09393537 0.67108929
-0.09051954 0.09393537 0.67108929
-0.089380935 0.09393537 0.67108929
-0.088242322 0.09393537 0.67108929
-0.08710371 0.09393537 0.67108929
-0.085965097 0.09393537 0.67108929
-0.084826492 0.09393537 0.67108929
-0.083687879 0.09393537 0.67108929
-0.082549267 0.09393537 0.67108929
-0.081410654 0.09393537 0.67108929
-0.080272049 0.09393537 0.67108929
-0.079133436 0.09393537 0.67108929
-0.077994823 0.09393537 0.67108929
-0.076856218 0.09393537 0.67108929
-0.075717606 0.09393537 0.67108929
-0.074578993 0.09393537 0.67108929
-0.07344038 0.09393537 0.67108929
-0.072301775 0.09393537 0.67108929
-0.071163163 0.09393537 0.67108929
-0.07002455 0.09393537 0.67108929
-0.068885937 0.09393537 0.67108929
-0.067747332 0.09393537 0.67108929
-0.06660872 0.09393537 0.67108929
-0.065470107 0.09393537 0.67108929
-0.064331502 0.09393537 0.67108929
-0.063192889 0.09393537 0.67108929
-0.062054276 0.09393537 0.67108929
-0.060915668 0.09393537 0.67108929
-0.059777055 0.09393537 0.67108929
-0.058638446 0.09393537 0.67108929
-0.057499833 0.09393537 0.67108929
-0.056361225 0.09393537 0.67108929
-0.055222612 0.09393537 0.67108929
-0.054084003 0.09393537 0.67108929
-0.052945394 0.09393537 0.67108929
-0.051806781 0.09393537 0.67108929
-0.050668173 0.09393537 0.67108929
-0.04952956 0.09393537 0.67108929
-0.048390951 0.09393537 0.67108929
-0.047252338 0.09393537 0.67108929
-0.046113729 0.09393537 0.67108929
-0.044975117 0.09393537 0.67108929
-0.043836508 0.09393537 0.67108929
-0.042697895 0.09393537 0.67108929
-0.041559286 0.09393537 0.67108929
-0.040420678 0.09393537 0.67108929
-0.039282065 0.09393537 0.67108929
-0.038143456 0.09393537 0.67108929
-0.037004843 0.09393537 0.67108929
-0.035866234 0.09393537 0.67108929
-0.034727622 0.09393537 0.67108929
-0.033589013 0.09393537 0.67108929
-0.0324504 0.09393537 0.67108929
-0.031311791 0.09393537 0.67108929
-0.17591533 0.095073983 0.67108929
-0.17477672 0.095073983 0.67108929
-0.17363812 0.095073983 0.67108929
-0.17249951 0.095073983 0.67108929
-0.1713609 0.095073983 0.67108929
-0.17022228 0.095073983 0.67108929
-0.16908367 0.095073983 0.67108929
-0.16794506 0.095073983 0.67108929
-0.16680644 0.095073983 0.67108929
-0.16566785 0.095073983 0.67108929
-0.16452923 0.095073983 0.67108929
-0.16339062 0.095073983 0.67108929
-0.16225201 0.095073983 0.67108929
-0.1611134 0.095073983 0.67108929
-0.15997478 0.095073983 0.67108929
-0.15883617 0.095073983 0.67108929
-0.15769757 0.095073983 0.67108929
-0.15655896 0.095073983 0.67108929
-0.15542035 0.095073983 0.67108929
-0.15428174 0.095073983 0.67108929
-0.15314312 0.095073983 0.67108929
-0.15200451 0.095073983 0.67108929
-0.1508659 0.095073983 0.67108929
-0.14972728 0.095073983 0.67108929
-0.14858869 0.095073983 0.67108929
-0.14745007 0.095073983 0.67108929
-0.14631146 0.095073983 0.67108929
-0.14517285 0.095073983 0.67108929
-0.14403424 0.095073983 0.67108929
-0.14289562 0.095073983 0.67108929
-0.14175701 0.095073983 0.67108929
-0.14061841 0.095073983 0.67108929
-0.1394798 0.095073983 0.67108929
-0.13834119 0.095073983 0.67108929
-0.13720258 0.095073983 0.67108929
-0.13606396 0.095073983 0.67108929
-0.13492535 0.095073983 0.67108929
-0.13378674 0.095073983 0.67108929
-0.13264814 0.095073983 0.67108929
-0.13150953 0.095073983 0.67108929
-0.13037091 0.095073983 0.67108929
-0.1292323 0.095073983 0.67108929
-0.12809369 0.095073983 0.67108929
-0.12695508 0.095073983 0.67108929
-0.12581646 0.095073983 0.67108929
-0.12467786 0.095073983 0.67108929
-0.12353925 0.095073983 0.67108929
-0.12240064 0.095073983 0.67108929
-0.12126203 0.095073983 0.67108929
-0.12012342 0.095073983 0.67108929
-0.1189848 0.095073983 0.67108929
-0.1178462 0.095073983 0.67108929
-0.11670759 0.095073983 0.67108929
-0.11556897 0.095073983 0.67108929
-0.11443036 0.095073983 0.67108929
-0.11329176 0.095073983 0.67108929
-0.11215314 0.095073983 0.67108929
-0.11101453 0.095073983 0.67108929
-0.10987592 0.095073983 0.67108929
-0.10873731 0.095073983 0.67108929
-0.1075987 0.095073983 0.67108929
-0.10646009 0.095073983 0.67108929
-0.10532148 0.095073983 0.67108929
-0.10418287 0.095073983 0.67108929
-0.10304426 0.095073983 0.67108929
-0.10190564 0.095073983 0.67108929
-0.10076704 0.095073983 0.67108929
-0.099628426 0.095073983 0.67108929
-0.098489814 0.095073983 0.67108929
-0.097351208 0.095073983 0.67108929
-0.096212596 0.095073983 0.67108929
-0.095073983 0.095073983 0.67108929
-0.09393537 0.095073983 0.67108929
-0.092796765 0.095073983 0.67108929
-0.091658153 0.095073983 0.67108929
-0.09051954 0.095073983 0.67108929
-0.089380935 0.095073983 0.67108929
-0.088242322 0.095073983 0.67108929
-0.08710371 0.095073983 0.67108929
-0.085965097 0.095073983 0.67108929
-0.084826492 0.095073983 0.67108929
-0.083687879 0.095073983 0.67108929
-0.082549267 0.095073983 0.67108929
-0.081410654 0.095073983 0.67108929
-0.080272049 0.095073983 0.67108929
-0.079133436 0.095073983 0.67108929
-0.077994823 0.095073983 0.67108929
-0.076856218 0.095073983 0.67108929
-0.075717606 0.095073983 0.67108929
-0.074578993 0.095073983 0.67108929
-0.07344038 0.095073983 0.67108929
-0.072301775 0.095073983 0.67108929
-0.071163163 0.095073983 0.67108929
-0.07002455 0.095073983 0.67108929
-0.068885937 0.095073983 0.67108929
-0.067747332 0.095073983 0.67108929
-0.06660872 0.095073983 0.67108929
-0.065470107 0.095073983 0.67108929
-0.064331502 0.095073983 0.67108929
-0.063192889 0.095073983 0.67108929
-0.062054276 0.095073983 0.67108929
-0.060915668 0.095073983 0.67108929
-0.059777055 0.095073983 0.67108929
-0.058638446 0.095073983 0.67108929
-0.057499833 0.095073983 0.67108929
-0.056361225 0.095073983 0.67108929
-0.055222612 0.095073983 0.67108929
-0.054084003 0.095073983 0.67108929
-0.052945394 0.095073983 0.67108929
-0.051806781 0.095073983 0.67108929
-0.050668173 0.095073983 0.67108929
-0.04952956 0.095073983 0.67108929
-0.048390951 0.095073983 0.67108929
-0.047252338 0.095073983 0.67108929
-0.046113729 0.095073983 0.67108929
-0.044975117 0.095073983 0.67108929
-0.043836508 0.095073983 0.67108929
-0.042697895 0.095073983 0.67108929
-0.041559286 0.095073983 0.67108929
-0.040420678 0.095073983 0.67108929
-0.039282065 0.095073983 0.67108929
-0.038143456 0.095073983 0.67108929
-0.037004843 0.095073983 0.67108929
-0.035866234 0.095073983 0.67108929
-0.034727622 0.095073983 0.67108929
-0.033589013 0.095073983 0.67108929
-0.0324504 0.095073983 0.67108929
-0.17591533 0.096212596 0.67108929
-0.17477672 0.096212596 0.67108929
