# .PCD v0.7 - Point Cloud Data file format
VERSION 0.7
FIELDS x y z
SIZE 4 4 4
TYPE F F F
COUNT 1 1 1
WIDTH 1024
HEIGHT 1
VIEWPOINT 0 0 0 1 0 0 0
POINTS 1024
DATA ascii
-0.0052017975 -0.052595954 0.68131202
-0.0014449441 -0.052884955 0.68131208
0.00096329628 -0.052981291 0.68131226
-0.0057797749 -0.050284047 0.68131208
-0.0017339331 -0.050284065 0.68131226
0.0014036605 -0.050118942 0.68131244
-0.0086696632 -0.045660228 0.68131208
-0.0057797767 -0.046238214 0.6813122
-0.0017339335 -0.046238225 0.68131238
0.0017339342 -0.046238244 0.68131256
0.0040458469 -0.045082293 0.68131268
0.03178886 -0.044504404 0.68131405
0.033869587 -0.044966791 0.68131411
0.036412705 -0.044504415 0.68131423
-0.041614302 -0.041036323 0.68131065
-0.038146451 -0.041961096 0.68131077
-0.03525658 -0.041036345 0.68131101
-0.0091320472 -0.041961182 0.6813122
-0.0057797781 -0.042192381 0.68131232
-0.0017339338 -0.042192392 0.68131256
0.0017339344 -0.042192403 0.68131268
0.0045082299 -0.041961219 0.6813128
0.030504458 -0.041935608 0.68131405
0.034100786 -0.042192496 0.68131423
0.03798902 -0.042087425 0.68131447
-0.044504181 -0.038146444 0.68131065
-0.042192284 -0.038146447 0.68131071
-0.038146459 -0.038146459 0.68131095
-0.03420572 -0.037988838 0.68131113
-0.031403419 -0.03679787 0.68131137
-0.017917303 -0.036412582 0.68131202
-0.013623759 -0.036908001 0.68131214
-0.009720535 -0.037988905 0.68131232
-0.0057797791 -0.038146544 0.6813125
-0.0017339344 -0.038146552 0.68131256
0.0017339346 -0.038146559 0.68131286
0.0056146486 -0.037898868 0.68131298
0.009681141 -0.03742411 0.68131316
0.013623784 -0.036908068 0.68131346
0.017917348 -0.036412675 0.68131369
0.021963207 -0.036412686 0.68131387
0.026265947 -0.037697092 0.68131399
0.030054929 -0.038146641 0.68131423
0.034100797 -0.038146649 0.68131441
0.037746523 -0.038280044 0.68131447
-0.042192295 -0.034100618 0.68131089
-0.03814647 -0.034100629 0.68131113
-0.034100637 -0.034100641 0.68131125
-0.03021244 -0.033995565 0.68131161
-0.026008978 -0.03352268 0.68131179
-0.021805512 -0.033995584 0.68131185
-0.017917305 -0.034100678 0.68131208
-0.013871465 -0.034100685 0.68131226
-0.0098256245 -0.034100696 0.68131244
-0.0057797804 -0.0341007 0.68131256
-0.0017339344 -0.034100719 0.6813128
0.0017339352 -0.034100726 0.68131298
0.0057797856 -0.03410073 0.68131322
0.0098256376 -0.034100745 0.6813134
0.013871494 -0.034100752 0.68131357
0.01791735 -0.03410076 0.68131381
0.021963211 -0.034100771 0.68131393
0.026009072 -0.034100786 0.68131411
0.030054936 -0.03410079 0.68131441
0.034100797 -0.034100797 0.68131453
0.037424196 -0.034245301 0.68131471
-0.04153176 -0.030302497 0.68131113
-0.038146473 -0.030054796 0.68131137
-0.034100648 -0.030054808 0.68131155
-0.030054817 -0.030054815 0.68131161
-0.026008984 -0.030054824 0.68131185
-0.021963147 -0.030054834 0.68131214
-0.017917307 -0.030054839 0.68131214
-0.013871469 -0.030054849 0.6813125
-0.0098256255 -0.030054854 0.68131262
-0.0057797814 -0.030054865 0.68131274
-0.0017339351 -0.030054875 0.68131304
0.0017339354 -0.030054882 0.68131304
0.0057797874 -0.03005489 0.6813134
0.0098256394 -0.030054899 0.68131351
0.013871497 -0.030054908 0.68131363
0.017917352 -0.030054918 0.68131393
0.021963213 -0.030054923 0.68131411
0.026009075 -0.030054932 0.68131441
0.03005494 -0.03005494 0.68131447
0.034100804 -0.030054947 0.68131453
0.03699071 -0.030054953 0.68131483
-0.041036364 -0.026008962 0.68131131
-0.038146485 -0.026008969 0.68131143
-0.034100655 -0.026008973 0.68131161
-0.030054823 -0.026008978 0.68131179
-0.026008988 -0.02600899 0.68131202
-0.021963151 -0.026008993 0.68131214
-0.017917313 -0.026009003 0.68131238
-0.013871471 -0.026009008 0.68131256
-0.0098256283 -0.026009016 0.68131268
-0.0057797828 -0.026009023 0.68131286
-0.0017339352 -0.026009031 0.68131304
0.0017339359 -0.026009038 0.68131328
0.0057797879 -0.026009044 0.68131351
0.0098256422 -0.026009053 0.68131363
0.013871499 -0.026009062 0.68131393
0.017917357 -0.026009068 0.68131405
0.021963218 -0.026009073 0.68131429
0.026009081 -0.026009083 0.68131447
0.030054947 -0.02600909 0.68131465
0.034100816 -0.026009098 0.68131483
0.037697148 -0.02575222 0.681315
-0.044504225 -0.020807169 0.68131125
-0.042087231 -0.021805495 0.68131131
-0.038146488 -0.021963131 0.68131161
-0.034100663 -0.021963136 0.68131167
-0.030054828 -0.021963146 0.68131185
-0.026008993 -0.021963151 0.68131208
-0.021963157 -0.021963157 0.68131244
-0.017917318 -0.021963162 0.68131256
-0.013871473 -0.021963168 0.68131262
-0.009825631 -0.021963172 0.68131286
-0.0057797837 -0.021963181 0.68131304
-0.0017339358 -0.021963187 0.68131328
0.0017339364 -0.021963188 0.68131346
0.0057797884 -0.0219632 0.68131357
0.0098256441 -0.021963203 0.68131375
0.013871501 -0.021963213 0.68131411
0.017917363 -0.021963216 0.68131417
0.021963222 -0.021963222 0.68131441
0.02600909 -0.021963229 0.68131453
0.030054951 -0.021963235 0.68131471
0.034100823 -0.021963241 0.68131495
0.03814669 -0.02196325 0.6813153
0.04208748 -0.021805622 0.68131536
0.044889819 -0.020614637 0.68131548
0.062999956 -0.020229343 0.68131638
0.064155921 -0.020229345 0.68131644
-0.045788616 -0.017660405 0.68131137
-0.042192329 -0.01791729 0.68131155
-0.0381465 -0.017917296 0.68131167
-0.034100667 -0.017917298 0.68131185
-0.030054836 -0.017917305 0.68131208
-0.026008999 -0.017917311 0.68131226
-0.021963162 -0.017917315 0.6813125
-0.01791732 -0.01791732 0.68131268
-0.013871479 -0.017917324 0.68131286
-0.009825632 -0.017917329 0.68131304
-0.0057797856 -0.017917335 0.68131322
-0.0017339361 -0.017917341 0.6813134
0.0017339367 -0.017917344 0.68131351
0.0057797902 -0.01791735 0.68131375
0.0098256459 -0.017917354 0.68131399
0.013871505 -0.017917363 0.68131405
0.017917365 -0.017917365 0.68131441
0.021963229 -0.01791737 0.68131453
0.026009092 -0.017917376 0.68131471
0.030054959 -0.01791738 0.68131495
0.034100831 -0.017917383 0.68131506
0.038146701 -0.017917389 0.68131536
0.042192578 -0.017917395 0.68131548
0.046080817 -0.017812312 0.6813156
0.050284334 -0.016761445 0.6813159
0.054041222 -0.017050439 0.68131614
0.057990775 -0.017532093 0.68131632
0.061843991 -0.017917421 0.68131644
0.064981632 -0.017752286 0.68131649
-0.068779171 -0.012137501 0.68131047
-0.065889306 -0.013293455 0.68131059
-0.062008619 -0.012963186 0.68131071
-0.058045365 -0.012632917 0.68131101
-0.053751845 -0.012137513 0.68131113
-0.050027117 -0.013421908 0.68131125
-0.046238162 -0.01387145 0.68131155
-0.04219234 -0.013871453 0.68131161
-0.038146507 -0.013871459 0.68131173
-0.034100674 -0.01387146 0.68131208
-0.030054841 -0.013871465 0.68131226
-0.026009006 -0.01387147 0.6813125
-0.021963168 -0.01387147 0.68131256
-0.017917326 -0.013871477 0.68131274
-0.013871482 -0.013871482 0.68131292
-0.0098256348 -0.013871484 0.6813131
-0.0057797874 -0.013871487 0.68131346
-0.0017339364 -0.013871492 0.68131351
0.001733937 -0.013871497 0.68131357
0.0057797921 -0.013871499 0.68131387
0.0098256478 -0.013871502 0.68131405
0.013871509 -0.01387151 0.68131435
0.01791737 -0.013871512 0.68131447
0.021963231 -0.013871514 0.68131453
0.026009098 -0.013871518 0.68131495
0.030054966 -0.013871523 0.68131506
0.034100838 -0.013871527 0.68131536
0.038146712 -0.01387153 0.68131542
0.042192582 -0.013871533 0.6813156
0.046238467 -0.013871538 0.68131572
0.050284341 -0.013871543 0.68131596
0.053752244 -0.013871546 0.6813162
0.057798121 -0.01387155 0.68131638
0.061844006 -0.013871553 0.68131644
0.065774299 -0.01375596 0.68131673
-0.069241561 -0.0095944069 0.68131053
-0.065889306 -0.0098255994 0.68131065
-0.061843488 -0.0098256012 0.68131089
-0.05779767 -0.009825605 0.68131107
-0.053751852 -0.0098256059 0.68131119
-0.050283998 -0.0098256087 0.68131143
-0.046238173 -0.0098256124 0.68131161
-0.042192347 -0.0098256143 0.68131185
-0.038146518 -0.009825618 0.68131202
-0.034100682 -0.0098256208 0.6813122
-0.030054847 -0.0098256236 0.6813125
-0.026009008 -0.0098256264 0.68131256
-0.021963172 -0.0098256292 0.6813128
-0.017917328 -0.009825631 0.68131298
-0.013871484 -0.0098256329 0.6813131
-0.0098256385 -0.0098256366 0.68131334
-0.0057797884 -0.0098256394 0.68131351
-0.0017339368 -0.0098256422 0.68131369
0.0017339374 -0.009825645 0.68131393
0.005779793 -0.0098256478 0.68131399
0.0098256497 -0.0098256506 0.68131423
0.01387151 -0.0098256534 0.68131447
0.017917372 -0.0098256562 0.68131459
0.021963239 -0.009825659 0.68131489
0.026009103 -0.0098256618 0.681315
0.030054973 -0.0098256646 0.68131524
0.034100845 -0.0098256674 0.68131542
0.038146719 -0.0098256702 0.68131548
0.042192593 -0.009825672 0.68131584
0.046238471 -0.0098256757 0.68131596
0.050284356 -0.0098256785 0.6813162
0.053752247 -0.0098256804 0.68131638
0.057798143 -0.0098256832 0.68131644
0.061844017 -0.0098256851 0.68131673
0.064926602 -0.010211009 0.68131685
-0.069164507 -0.0071283751 0.68131065
-0.065773733 -0.0058953604 0.68131077
-0.061843511 -0.0057797669 0.68131107
-0.057797689 -0.0057797679 0.68131125
-0.05375186 -0.0057797707 0.68131137
-0.050284013 -0.0057797711 0.68131155
-0.046238188 -0.005779773 0.68131167
-0.042192359 -0.0057797749 0.68131202
-0.038146522 -0.0057797767 0.68131208
-0.034100689 -0.0057797781 0.68131232
-0.030054854 -0.0057797791 0.68131256
-0.026009016 -0.0057797818 0.68131274
-0.021963177 -0.0057797828 0.6813128
-0.017917333 -0.0057797846 0.68131304
-0.013871485 -0.0057797865 0.68131334
-0.0098256394 -0.0057797879 0.68131351
-0.0057797884 -0.0057797884 0.68131363
-0.0017339373 -0.0057797912 0.68131381
0.0017339378 -0.005779793 0.68131399
0.0057797944 -0.0057797944 0.68131423
0.0098256525 -0.0057797953 0.68131447
0.013871514 -0.0057797981 0.68131459
0.017917378 -0.0057797991 0.68131477
0.021963244 -0.0057798 0.68131495
0.026009111 -0.0057798023 0.68131512
0.030054979 -0.0057798037 0.68131536
0.034100853 -0.0057798051 0.68131548
0.038146727 -0.0057798075 0.68131566
0.042192604 -0.0057798089 0.68131596
0.046238482 -0.0057798107 0.6813162
0.05028436 -0.0057798116 0.68131638
0.053752258 -0.0057798126 0.68131644
0.057798147 -0.0057798149 0.68131661
0.061458718 -0.0067431186 0.68131685
-0.064540729 -0.0025045655 0.68131095
-0.061843522 -0.0017339303 0.68131113
-0.057797696 -0.0017339308 0.68131137
-0.053751875 -0.0017339314 0.68131161
-0.050284021 -0.0017339318 0.68131167
-0.046238195 -0.0017339323 0.68131191
-0.042192362 -0.0017339328 0.68131208
-0.038146533 -0.001733933 0.68131226
-0.034100696 -0.0017339337 0.6813125
-0.03005486 -0.0017339345 0.68131262
-0.026009021 -0.0017339347 0.6813128
-0.021963179 -0.0017339353 0.68131304
-0.017917337 -0.0017339358 0.68131328
-0.013871488 -0.0017339363 0.68131346
-0.0098256413 -0.0017339366 0.68131363
-0.0057797902 -0.001733937 0.68131393
-0.0017339374 -0.0017339376 0.68131399
0.0017339383 -0.001733938 0.68131411
0.0057797953 -0.0017339386 0.68131441
0.0098256553 -0.001733939 0.68131453
0.013871516 -0.0017339395 0.68131471
0.01791738 -0.0017339399 0.68131495
0.021963246 -0.0017339404 0.68131512
0.026009116 -0.001733941 0.6813153
0.030054986 -0.0017339416 0.68131548
0.03410086 -0.001733942 0.68131572
0.038146734 -0.0017339424 0.6813159
0.042192612 -0.0017339428 0.68131608
0.046238493 -0.0017339434 0.68131632
0.050284371 -0.0017339439 0.68131644
0.053752277 -0.0017339443 0.68131661
0.057220176 -0.0017339448 0.68131679
-0.061072897 0.00096329494 0.68131131
-0.057797704 0.0017339312 0.68131155
-0.053751886 0.0017339317 0.68131167
-0.050284032 0.0017339322 0.68131185
-0.046238203 0.0017339328 0.68131208
-0.042192373 0.0017339331 0.68131214
-0.038146541 0.0017339336 0.6813125
-0.034100704 0.0017339342 0.68131256
-0.030054867 0.0017339346 0.68131274
-0.026009025 0.0017339351 0.68131304
-0.021963185 0.0017339358 0.68131322
-0.017917339 0.0017339361 0.6813134
-0.013871492 0.0017339367 0.68131351
-0.0098256432 0.0017339372 0.68131375
-0.0057797916 0.0017339374 0.68131399
-0.001733938 0.0017339379 0.68131417
0.0017339386 0.0017339386 0.68131429
0.0057797967 0.001733939 0.68131447
0.0098256581 0.0017339395 0.68131471
0.01387152 0.00173394 0.68131495
0.017917383 0.0017339403 0.68131506
0.021963252 0.001733941 0.68131524
0.026009122 0.0017339415 0.68131542
0.030054992 0.001733942 0.6813156
0.034100868 0.0017339423 0.6813159
0.038146742 0.0017339428 0.68131596
0.042192619 0.0017339431 0.68131626
0.046238501 0.0017339439 0.68131638
0.050284386 0.0017339443 0.68131661
0.053752284 0.0017339448 0.68131679
0.057798166 0.0017339456 0.68131685
-0.060687598 0.0057797711 0.68131155
-0.057797719 0.0057797721 0.68131167
-0.05375189 0.0057797744 0.68131179
-0.050284043 0.0057797753 0.68131202
-0.046238214 0.0057797763 0.68131214
-0.042192385 0.0057797786 0.68131238
-0.038146548 0.0057797804 0.68131256
-0.034100711 0.0057797818 0.68131274
-0.030054873 0.0057797828 0.68131292
-0.026009033 0.0057797846 0.68131304
-0.021963187 0.0057797874 0.6813134
-0.017917344 0.0057797879 0.68131351
-0.013871497 0.0057797902 0.68131363
-0.0098256459 0.0057797916 0.68131393
-0.0057797935 0.0057797935 0.68131417
-0.0017339382 0.005779794 0.68131429
0.0017339388 0.0057797958 0.68131447
0.0057797972 0.0057797981 0.68131453
0.009825659 0.0057797995 0.68131489
0.013871522 0.0057798009 0.681315
0.017917389 0.0057798023 0.68131524
0.021963255 0.0057798042 0.68131542
0.026009126 0.0057798061 0.68131548
0.030055 0.0057798084 0.68131578
0.034100872 0.0057798089 0.68131596
0.038146745 0.0057798107 0.68131626
0.042192627 0.0057798126 0.68131638
0.046238512 0.005779814 0.68131649
0.050284397 0.0057798158 0.68131679
0.053752303 0.0057798163 0.68131685
0.057798188 0.0057798186 0.68131709
0.060919303 0.0061266096 0.68131721
-0.061265584 0.0098256124 0.68131161
-0.057797741 0.0098256161 0.68131179
-0.053751905 0.0098256171 0.68131202
-0.05028405 0.0098256208 0.68131214
-0.046238225 0.0098256236 0.68131226
-0.042192388 0.0098256255 0.6813125
-0.038146559 0.0098256283 0.68131262
-0.034100723 0.009825631 0.68131298
-0.030054877 0.0098256329 0.68131304
-0.026009038 0.0098256357 0.68131328
-0.021963192 0.0098256394 0.68131346
-0.017917346 0.0098256422 0.68131363
-0.013871498 0.0098256459 0.68131393
-0.0098256469 0.0098256478 0.68131405
-0.005779794 0.0098256515 0.68131429
-0.0017339387 0.0098256525 0.68131441
0.0017339392 0.0098256553 0.68131459
0.0057797995 0.0098256581 0.68131477
0.0098256608 0.0098256618 0.68131495
0.013871524 0.0098256627 0.68131512
0.017917391 0.0098256655 0.68131542
0.021963261 0.0098256692 0.68131548
0.026009133 0.009825672 0.68131578
0.030055007 0.0098256757 0.6813159
0.034100883 0.0098256776 0.68131614
0.03814676 0.0098256804 0.68131638
0.042192638 0.0098256832 0.68131649
0.046238523 0.0098256851 0.68131679
0.050284404 0.0098256888 0.68131685
0.053752307 0.0098256906 0.68131703
0.057798203 0.0098256925 0.68131733
0.061513811 0.0099908337 0.68131739
-0.06173848 0.014029086 0.68131173
-0.057797752 0.013871456 0.68131191
-0.053751927 0.013871465 0.68131214
-0.050284062 0.013871468 0.68131226
-0.046238236 0.01387147 0.6813125
-0.0421924 0.013871473 0.68131262
-0.038146563 0.013871481 0.68131274
-0.034100726 0.013871484 0.68131304
-0.030054886 0.013871485 0.68131334
-0.026009044 0.01387149 0.68131346
-0.021963198 0.013871494 0.68131357
-0.01791735 0.013871498 0.68131381
-0.013871499 0.0138715 0.68131399
-0.0098256487 0.013871506 0.68131417
-0.0057797953 0.013871511 0.68131441
-0.001733939 0.013871514 0.68131453
0.0017339396 0.013871516 0.68131477
0.0057797995 0.013871521 0.68131489
0.0098256627 0.013871524 0.68131512
0.013871528 0.013871528 0.68131536
0.017917393 0.013871531 0.68131548
0.021963265 0.013871536 0.68131566
0.026009137 0.01387154 0.6813159
0.030055009 0.013871543 0.68131614
0.03410089 0.013871548 0.68131632
0.038146768 0.013871551 0.68131644
0.042192649 0.013871555 0.68131667
0.046238538 0.01387156 0.68131673
0.050284415 0.013871565 0.68131691
0.053752318 0.013871566 0.68131733
0.057798207 0.013871572 0.68131733
0.061844107 0.013871574 0.68131757
0.065642297 0.015110112 0.68131781
0.069935903 0.015605532 0.68131804
-0.064155489 0.019073253 0.68131185
-0.061843589 0.017917302 0.68131191
-0.057797763 0.017917305 0.68131208
-0.053751931 0.017917313 0.68131226
-0.05028408 0.017917315 0.6813125
-0.046238247 0.01791732 0.68131256
-0.042192414 0.017917326 0.68131286
-0.038146574 0.017917329 0.68131304
-0.034100734 0.017917335 0.68131316
-0.030054891 0.017917339 0.68131346
-0.026009049 0.017917344 0.68131357
-0.021963201 0.01791735 0.68131381
-0.017917354 0.017917356 0.68131393
-0.013871502 0.017917359 0.68131417
-0.0098256515 0.017917365 0.68131441
-0.0057797972 0.01791737 0.68131447
-0.0017339395 0.017917376 0.68131477
0.00173394 0.017917382 0.68131495
0.0057798014 0.017917385 0.681315
0.0098256655 0.017917389 0.6813153
0.013871532 0.017917397 0.68131548
0.017917402 0.017917398 0.68131566
0.02196327 0.017917404 0.68131584
0.026009144 0.017917408 0.68131608
0.030055018 0.017917415 0.68131632
0.034100898 0.017917421 0.68131638
0.038146775 0.017917426 0.68131667
0.042192657 0.01791743 0.68131679
0.046238545 0.017917434 0.68131703
0.050284427 0.017917441 0.68131721
0.053752333 0.017917447 0.68131733
0.057798218 0.017917447 0.68131751
0.061844118 0.017917454 0.68131781
0.065890014 0.01791746 0.68131787
0.06993591 0.017917464 0.68131816
0.073981814 0.017917469 0.68131828
0.077449732 0.018495457 0.68131852
-0.077448912 0.023697056 0.68131137
-0.073733367 0.023201654 0.68131155
-0.069935247 0.022541115 0.68131167
-0.065889426 0.021963142 0.68131179
-0.061843604 0.021963149 0.68131208
-0.057797775 0.021963155 0.68131232
-0.053751945 0.021963159 0.6813125
-0.050284088 0.021963166 0.68131256
-0.046238255 0.021963172 0.68131274
-0.042192418 0.021963177 0.68131304
-0.038146585 0.021963187 0.68131322
-0.034100741 0.021963188 0.68131334
-0.030054899 0.021963194 0.68131351
-0.026009055 0.021963201 0.68131369
-0.021963207 0.021963205 0.68131387
-0.017917359 0.021963216 0.68131405
-0.013871509 0.021963218 0.68131441
-0.0098256543 0.021963229 0.68131447
-0.0057797977 0.021963233 0.68131459
-0.00173394 0.021963239 0.68131489
0.0017339404 0.021963246 0.681315
0.0057798028 0.021963252 0.6813153
0.0098256674 0.021963255 0.68131542
0.013871535 0.021963259 0.68131554
0.017917404 0.02196327 0.6813159
0.021963276 0.021963274 0.68131614
0.02600915 0.021963282 0.68131632
0.030055026 0.021963285 0.68131638
0.034100901 0.021963293 0.68131655
0.038146786 0.0219633 0.68131673
0.042192668 0.021963306 0.68131691
0.046238545 0.021963313 0.68131721
0.050284442 0.021963319 0.68131733
0.053752348 0.021963323 0.68131739
0.05779824 0.02196333 0.68131769
0.061844125 0.021963336 0.68131781
0.065890022 0.021963345 0.68131822
0.069935918 0.021963349 0.68131828
0.073981822 0.021963354 0.6813184
0.077449739 0.021963362 0.68131858
-0.077448927 0.026008965 0.68131143
-0.073981084 0.026008977 0.68131161
-0.069935262 0.02600898 0.68131185
-0.06588944 0.026008988 0.68131208
-0.061843615 0.026008995 0.6813122
-0.057797786 0.026009006 0.6813125
-0.05375196 0.02600901 0.68131262
-0.050284103 0.026009018 0.6813128
-0.04623827 0.026009025 0.68131298
-0.042192433 0.026009031 0.6813131
-0.038146589 0.026009038 0.68131334
-0.034100752 0.026009047 0.68131351
-0.030054906 0.026009053 0.68131369
-0.02600906 0.02600906 0.68131393
-0.021963215 0.026009068 0.68131405
-0.017917363 0.026009075 0.68131435
-0.013871512 0.026009077 0.68131447
-0.0098256553 0.02600909 0.68131465
-0.0057797991 0.026009098 0.68131489
-0.0017339402 0.026009103 0.681315
0.0017339409 0.026009111 0.68131512
0.0057798047 0.02600912 0.68131542
0.0098256692 0.026009126 0.68131554
0.013871537 0.026009135 0.68131584
0.017917406 0.026009141 0.6813159
0.021963278 0.026009148 0.68131614
0.026009152 0.026009154 0.68131638
0.030055031 0.026009159 0.68131655
0.034100909 0.026009168 0.68131673
0.038146794 0.026009178 0.68131691
0.042192675 0.026009182 0.68131709
0.04623856 0.026009193 0.68131733
0.050284445 0.026009198 0.68131745
0.053752359 0.026009208 0.68131769
0.057798252 0.026009215 0.68131781
0.061844144 0.026009219 0.68131804
0.065890037 0.026009226 0.68131828
0.06993594 0.026009232 0.68131834
0.073824205 0.025904156 0.68131864
0.077449754 0.025431262 0.68131876
-0.077448949 0.030054815 0.68131161
-0.073981091 0.030054821 0.68131167
-0.069935277 0.030054836 0.68131202
-0.065889455 0.030054839 0.68131208
-0.061843634 0.030054851 0.68131238
-0.057797801 0.030054858 0.68131256
-0.053751972 0.030054862 0.68131262
-0.050284106 0.030054873 0.68131298
-0.046238273 0.030054878 0.6813131
-0.04219244 0.03005489 0.68131328
-0.038146604 0.030054895 0.68131351
-0.034100756 0.030054905 0.68131357
-0.030054914 0.030054914 0.68131381
-0.026009066 0.030054921 0.68131399
-0.021963216 0.030054931 0.68131435
-0.017917367 0.03005494 0.68131447
-0.013871514 0.030054947 0.68131453
-0.0098256581 0.030054951 0.68131489
-0.0057798005 0.030054966 0.68131489
-0.0017339406 0.03005497 0.68131524
0.001733941 0.030054977 0.68131536
0.0057798056 0.030054986 0.68131548
0.009825672 0.030054996 0.68131566
0.013871541 0.030055003 0.6813159
0.017917411 0.030055009 0.68131614
0.021963287 0.030055022 0.68131638
0.026009159 0.030055026 0.68131644
0.030055037 0.030055039 0.68131661
0.03410092 0.030055046 0.68131685
0.038146798 0.030055054 0.68131709
0.042192686 0.030055063 0.68131733
0.046238571 0.030055072 0.68131739
0.05028446 0.030055081 0.68131763
0.053752363 0.030055089 0.68131781
0.057798266 0.030055098 0.68131804
0.061844159 0.030055104 0.68131828
0.065543264 0.029361535 0.68131828
0.069935948 0.028321169 0.68131852
-0.073403127 0.032944713 0.68131191
-0.0697041 0.033407107 0.68131214
-0.065658279 0.033869501 0.68131238
-0.061843641 0.0341007 0.68131256
-0.057797808 0.034100708 0.68131274
-0.053751979 0.034100719 0.68131286
-0.050284129 0.034100726 0.68131304
-0.046238285 0.034100734 0.68131322
-0.042192448 0.034100745 0.68131346
-0.038146608 0.034100756 0.68131357
-0.034100763 0.034100767 0.68131381
-0.030054919 0.034100775 0.68131399
-0.026009072 0.034100786 0.68131417
-0.021963222 0.03410079 0.68131441
-0.017917372 0.034100801 0.68131453
-0.013871514 0.034100812 0.68131477
-0.0098256599 0.034100823 0.68131495
-0.0057798014 0.034100827 0.68131512
-0.001733941 0.034100845 0.68131536
0.0017339415 0.034100849 0.68131548
0.0057798065 0.034100857 0.68131566
0.009825673 0.034100868 0.6813159
0.013871546 0.034100879 0.68131608
0.017917417 0.034100883 0.68131626
0.021963289 0.034100898 0.68131638
0.026009165 0.034100905 0.68131661
0.030055046 0.034100916 0.68131679
0.034100927 0.034100924 0.68131703
0.038146805 0.034100935 0.68131727
0.042192698 0.034100942 0.68131745
0.046238583 0.03410095 0.68131763
0.050284471 0.034100965 0.68131775
0.053752381 0.034100972 0.68131793
0.05779827 0.034100983 0.68131822
0.06184417 0.034100991 0.68131834
-0.061612468 0.037915364 0.68131268
-0.057797819 0.038146567 0.68131268
-0.05375199 0.038146574 0.68131304
-0.050284136 0.038146585 0.68131322
-0.046238292 0.038146596 0.68131346
-0.042192455 0.038146608 0.68131357
-0.038146619 0.038146615 0.68131369
-0.034100775 0.03814663 0.68131399
-0.030054927 0.038146641 0.68131423
-0.026009077 0.038146649 0.68131441
-0.021963228 0.03814666 0.68131453
-0.017917374 0.038146663 0.68131465
-0.01387152 0.038146678 0.68131495
-0.0098256618 0.038146693 0.681315
-0.0057798028 0.038146701 0.68131536
-0.0017339414 0.038146716 0.68131542
0.0017339418 0.038146719 0.6813156
0.0057798079 0.038146731 0.6813159
0.0098256767 0.038146738 0.68131596
0.013871547 0.038146753 0.68131626
0.017917419 0.03814676 0.68131638
0.021963293 0.038146771 0.68131655
0.026009172 0.038146783 0.68131679
0.03005505 0.038146798 0.68131703
0.034100931 0.038146805 0.68131727
0.038146816 0.038146812 0.68131739
0.042192701 0.038146827 0.68131757
0.046238594 0.038146839 0.68131769
0.050284486 0.03814685 0.68131787
0.053752389 0.038146857 0.68131822
0.057798281 0.038146868 0.68131828
0.061612986 0.037915684 0.68131846
-0.060976706 0.041903425 0.68131286
-0.057797834 0.042192418 0.68131304
-0.053752005 0.042192437 0.68131316
-0.050284147 0.042192444 0.6813134
-0.046238307 0.042192455 0.68131351
-0.042192467 0.042192467 0.68131381
-0.038146626 0.042192478 0.68131399
-0.034100782 0.042192493 0.68131411
-0.030054929 0.0421925 0.68131429
-0.026009085 0.042192511 0.68131447
-0.021963231 0.042192522 0.68131465
-0.017917378 0.042192534 0.68131489
-0.013871524 0.042192549 0.681315
-0.0098256655 0.042192563 0.68131524
-0.0057798042 0.042192575 0.68131542
-0.0017339417 0.042192578 0.6813156
0.0017339423 0.042192593 0.68131584
0.0057798089 0.042192604 0.6813159
0.0098256785 0.042192616 0.68131614
0.01387155 0.042192627 0.68131638
0.017917421 0.042192638 0.68131649
0.021963298 0.042192649 0.68131679
0.026009178 0.042192664 0.68131691
0.030055055 0.042192679 0.68131715
0.034100939 0.042192686 0.68131733
0.038146824 0.042192701 0.68131751
0.042192712 0.042192716 0.68131775
0.046238601 0.042192724 0.68131781
0.050284497 0.042192735 0.6813181
0.0537524 0.042192742 0.68131822
0.057798296 0.042192757 0.68131834
0.061150618 0.041961573 0.68131858
-0.060687728 0.044504333 0.68131298
-0.057797849 0.046238281 0.68131322
-0.053752016 0.046238292 0.68131334
-0.050284158 0.046238303 0.68131351
-0.046238318 0.046238314 0.68131363
-0.042192474 0.046238333 0.68131393
-0.03814663 0.04623834 0.68131411
-0.034100786 0.046238352 0.68131429
-0.03005494 0.046238367 0.68131447
-0.026009092 0.046238381 0.68131453
-0.021963237 0.046238393 0.68131477
-0.017917382 0.046238407 0.68131495
-0.013871526 0.046238422 0.6813153
-0.0098256664 0.046238434 0.68131542
-0.0057798061 0.046238441 0.68131548
-0.001733942 0.046238456 0.68131584
0.0017339424 0.046238467 0.6813159
0.0057798102 0.046238482 0.6813162
0.0098256804 0.046238493 0.68131632
0.013871552 0.046238504 0.68131638
0.017917426 0.046238523 0.68131667
0.021963306 0.046238538 0.68131691
0.026009182 0.046238545 0.68131715
0.030055063 0.046238549 0.68131733
0.03410095 0.046238575 0.68131739
0.038146835 0.04623859 0.68131757
0.042192727 0.046238601 0.68131781
0.046238605 0.046238609 0.6813181
0.050284505 0.04623862 0.68131828
0.053752419 0.046238635 0.68131834
0.057798319 0.04623865 0.68131846
0.060688239 0.046238661 0.6813187
-0.057219889 0.050284144 0.68131328
-0.053752027 0.050284155 0.68131351
-0.050284166 0.050284162 0.68131363
-0.046238329 0.050284177 0.68131381
-0.042192481 0.050284192 0.68131399
-0.038146641 0.050284207 0.68131417
-0.034100797 0.050284222 0.68131441
-0.030054944 0.05028424 0.68131453
-0.026009096 0.050284252 0.68131477
-0.021963244 0.050284263 0.681315
-0.017917385 0.050284278 0.68131512
-0.013871529 0.050284285 0.68131542
-0.0098256702 0.050284304 0.68131554
-0.0057798065 0.050284322 0.68131572
-0.0017339424 0.050284334 0.6813159
0.001733943 0.050284345 0.68131602
0.0057798116 0.050284367 0.68131632
0.0098256832 0.050284371 0.68131638
0.013871555 0.050284389 0.68131661
0.017917432 0.050284404 0.68131685
0.021963308 0.050284412 0.68131703
0.026009189 0.05028443 0.68131721
0.03005507 0.050284445 0.68131733
0.034100953 0.05028446 0.68131757
0.038146842 0.050284475 0.68131781
0.042192731 0.050284486 0.68131799
0.04623862 0.050284505 0.68131822
0.050284512 0.050284512 0.68131834
0.053752422 0.050284527 0.68131858
0.057798326 0.050284546 0.68131876
0.061699729 0.050429054 0.68131888
0.064734153 0.051440537 0.68131912
-0.060687758 0.054907974 0.68131334
-0.057640243 0.05385711 0.68131346
-0.053752039 0.053752035 0.68131357
-0.05028417 0.05375205 0.68131387
-0.046238333 0.053752065 0.68131399
-0.042192493 0.053752076 0.68131405
-0.038146649 0.053752098 0.68131441
-0.034100797 0.053752109 0.68131447
-0.030054951 0.053752121 0.68131471
-0.026009098 0.053752135 0.68131489
-0.021963246 0.05375215 0.681315
-0.017917389 0.053752169 0.6813153
-0.013871531 0.053752184 0.68131542
-0.0098256711 0.053752199 0.68131572
-0.0057798079 0.05375221 0.68131584
-0.0017339428 0.053752229 0.68131602
0.0017339434 0.053752244 0.68131626
0.0057798121 0.053752255 0.68131638
0.0098256841 0.053752273 0.68131661
0.013871558 0.053752288 0.68131679
0.017917434 0.053752303 0.68131697
0.021963313 0.053752314 0.68131715
0.026009193 0.053752333 0.68131733
0.030055076 0.053752348 0.68131751
0.034100965 0.053752363 0.68131775
0.03814685 0.053752378 0.68131787
0.042192742 0.053752393 0.68131816
0.046238631 0.053752411 0.68131828
0.050284527 0.053752422 0.68131858
0.053752437 0.053752437 0.6813187
0.05779833 0.053752456 0.68131876
0.06184423 0.053752463 0.681319
0.065732501 0.053857565 0.68131924
0.068780072 0.054908462 0.68131942
-0.064540952 0.059146482 0.68131328
-0.061738644 0.057955503 0.68131346
-0.057797883 0.057797883 0.68131357
-0.053752046 0.057797905 0.68131369
-0.050284181 0.057797913 0.68131393
-0.046238344 0.057797939 0.68131411
-0.0421925 0.05779795 0.68131429
-0.038146652 0.057797968 0.68131447
-0.034100808 0.05779798 0.68131465
-0.030054957 0.057797994 0.68131483
-0.026009103 0.057798017 0.681315
-0.02196325 0.057798028 0.6813153
-0.017917393 0.057798039 0.68131542
-0.013871534 0.057798065 0.6813156
-0.009825673 0.057798084 0.68131584
-0.0057798093 0.057798088 0.68131602
-0.001733943 0.057798114 0.6813162
0.0017339438 0.057798121 0.68131638
0.0057798135 0.057798143 0.68131644
0.0098256851 0.057798147 0.68131679
0.013871562 0.057798162 0.68131697
0.017917437 0.057798192 0.68131715
0.021963317 0.057798203 0.68131733
0.026009196 0.057798218 0.68131751
0.030055081 0.057798225 0.68131769
0.034100968 0.057798255 0.68131787
0.038146853 0.057798263 0.68131816
0.042192753 0.057798281 0.68131828
0.046238646 0.0577983 0.6813184
0.050284535 0.057798322 0.6813187
0.053752441 0.057798326 0.68131876
0.057798341 0.057798341 0.68131906
0.061844241 0.057798371 0.68131924
0.065890141 0.057798382 0.68131936
0.069704853 0.057798393 0.68131959
-0.065440029 0.062100604 0.6813134
-0.061843734 0.061843734 0.68131351
-0.057797894 0.061843753 0.68131369
-0.053752057 0.061843768 0.68131393
-0.050284192 0.061843786 0.68131399
-0.046238352 0.061843801 0.68131423
-0.042192504 0.061843812 0.68131441
-0.038146663 0.061843831 0.68131453
-0.034100816 0.061843853 0.68131483
-0.030054966 0.061843872 0.68131495
-0.026009111 0.06184388 0.68131518
-0.021963259 0.061843902 0.68131542
-0.017917397 0.061843924 0.68131554
-0.013871538 0.061843932 0.68131584
-0.0098256748 0.061843958 0.68131596
-0.0057798098 0.061843973 0.68131614
-0.0017339436 0.061843991 0.68131638
0.0017339442 0.061844006 0.68131649
0.0057798154 0.061844021 0.68131679
0.0098256879 0.061844043 0.68131685
0.013871565 0.061844051 0.68131709
0.017917443 0.061844077 0.68131727
0.021963321 0.061844096 0.68131739
0.026009206 0.06184411 0.68131769
0.030055089 0.061844122 0.68131781
0.034100972 0.061844137 0.68131799
0.038146865 0.061844166 0.68131822
0.042192757 0.06184417 0.68131834
0.046238657 0.061844189 0.6813187
0.050284546 0.061844211 0.68131882
0.053752456 0.061266243 0.68131894
0.058029555 0.061613046 0.68131912
0.061844263 0.061844263 0.6813193
0.065890156 0.061844286 0.68131953
0.069069088 0.061555296 0.68131971
-0.065311603 0.065521777 0.68131357
-0.061843749 0.065889604 0.68131357
-0.057797909 0.065889619 0.68131375
-0.053867668 0.065542854 0.68131399
-0.050284207 0.065167174 0.68131411
-0.046238363 0.065889664 0.68131441
-0.042192519 0.065889679 0.68131453
-0.038146667 0.065889709 0.68131465
-0.034100819 0.065889724 0.68131495
-0.03005497 0.065889739 0.68131524
-0.026009114 0.065889768 0.68131542
-0.021963259 0.065889776 0.68131548
-0.017917402 0.065889798 0.68131572
-0.01387154 0.06588982 0.6813159
-0.0098256776 0.065889835 0.6813162
-0.0057798116 0.06588985 0.68131632
-0.0017339438 0.065889873 0.68131644
0.0017339442 0.065889895 0.68131667
0.0057798163 0.065889895 0.68131685
0.0098256906 0.065889925 0.68131691
0.013871566 0.065889947 0.68131733
0.017917445 0.065889962 0.68131739
0.021963326 0.065889969 0.68131751
0.026009209 0.065890007 0.68131781
0.030055096 0.065890014 0.68131804
0.03410098 0.065890022 0.68131822
0.038146872 0.065890066 0.68131834
0.042192761 0.065890074 0.68131852
0.046238661 0.065890089 0.68131876
0.049513906 0.064541467 0.68131894
0.063000239 0.064156212 0.68131948
0.065890171 0.064156219 0.68131959
-0.064155668 0.069357485 0.68131375
-0.062132746 0.069068491 0.68131375
-0.059531849 0.068779513 0.68131387
-0.044889759 0.069164902 0.68131465
-0.042192526 0.06993556 0.68131477
-0.038146678 0.069935575 0.68131495
-0.034100831 0.069935605 0.68131512
-0.030054977 0.069935612 0.68131536
-0.026009124 0.069935642 0.68131548
-0.021963263 0.069935657 0.68131566
-0.017917404 0.069935679 0.6813159
-0.013871543 0.069935687 0.68131596
-0.0098256804 0.069935724 0.68131626
-0.0057798126 0.069935732 0.68131644
-0.0017339443 0.069935754 0.68131667
0.0017339449 0.069935769 0.68131679
0.0057798177 0.069935791 0.68131691
0.0098256916 0.069935806 0.68131721
0.013871568 0.069935836 0.68131733
0.017917449 0.069935851 0.68131757
0.021963334 0.069935866 0.68131781
0.026009215 0.069935888 0.68131793
0.0300551 0.06993591 0.6813181
0.034100991 0.069935925 0.68131828
0.03814688 0.069935948 0.68131846
0.042192776 0.06993597 0.6813187
0.045275357 0.069550656 0.68131882
-0.041421894 0.072632812 0.68131489
-0.038031094 0.073865861 0.68131512
-0.034100838 0.073981471 0.68131536
-0.030054981 0.073981494 0.68131542
-0.026009127 0.073981516 0.6813156
-0.02196327 0.073981546 0.6813159
-0.01791741 0.073981561 0.68131596
-0.013871547 0.073981583 0.68131632
-0.0098256813 0.073981591 0.68131644
-0.0057798144 0.07398162 0.68131649
-0.0017339448 0.073981643 0.68131685
0.0017339452 0.07398165 0.68131691
0.0057798186 0.073981687 0.68131721
0.0098256944 0.073981702 0.68131733
0.013871573 0.07398171 0.68131745
0.017917452 0.073981754 0.68131781
0.021963337 0.073981762 0.68131793
0.026009224 0.073981784 0.6813181
0.030055108 0.073981807 0.68131828
0.034101002 0.073981822 0.68131846
0.038146891 0.073981836 0.68131858
0.041697364 0.07340388 0.68131876
-0.03670175 0.077738345 0.68131524
-0.034100845 0.078027353 0.68131542
-0.030054992 0.078027375 0.68131548
-0.026009135 0.078027405 0.68131578
-0.021963276 0.07802742 0.68131596
-0.017917415 0.078027442 0.6813162
-0.01387155 0.078027472 0.68131632
-0.0098256832 0.078027487 0.68131655
-0.0057798154 0.078027502 0.68131679
-0.001733945 0.078027532 0.68131691
0.0017339457 0.078027546 0.68131703
0.005779821 0.078027569 0.68131733
0.0098256972 0.078027599 0.68131745
0.013871576 0.078027613 0.68131775
0.01791746 0.078027636 0.68131787
0.021963343 0.078027666 0.68131804
0.026009228 0.078027688 0.68131828
0.030055115 0.078027703 0.68131834
0.034101006 0.078027725 0.68131864
0.038146898 0.078027733 0.68131876
0.041614804 0.07802777 0.681319
-0.036990751 0.082073212 0.68131542
-0.034100849 0.082073234 0.68131548
-0.030054998 0.082073264 0.68131572
-0.026009141 0.082073279 0.6813159
-0.021963282 0.082073301 0.68131614
-0.017917417 0.082073331 0.68131632
-0.013871552 0.082073361 0.68131649
-0.0098256851 0.082073383 0.68131679
-0.0057798163 0.082073398 0.68131685
-0.0017339456 0.082073428 0.68131709
0.001733946 0.082073443 0.68131733
0.0057798214 0.082073465 0.68131739
0.009825699 0.082073487 0.68131763
0.013871578 0.08207351 0.68131781
0.01791746 0.082073517 0.68131804
0.021963349 0.082073547 0.68131822
0.025904143 0.081915945 0.68131834
0.030055124 0.082073614 0.68131858
0.034101013 0.082073629 0.68131876
0.038146909 0.082073636 0.68131894
0.042087719 0.082231313 0.68131918
-0.037424237 0.086263597 0.68131554
-0.034100857 0.086119115 0.68131572
-0.030055001 0.086119145 0.6813159
-0.026009146 0.086119168 0.68131608
-0.022310071 0.085194409 0.6813162
-0.017917423 0.085541241 0.68131644
-0.013713923 0.086014152 0.68131673
-0.0098256879 0.086119264 0.68131685
-0.0057798182 0.086119294 0.68131691
-0.0017339459 0.086119309 0.68131733
0.0017339463 0.086119331 0.68131739
0.0057798219 0.086119354 0.68131757
0.0098257009 0.086119376 0.68131781
0.01371395 0.086014323 0.68131787
0.017917465 0.085541449 0.6813181
0.021385366 0.084963478 0.68131828
0.031018436 0.085734189 0.68131876
0.034101024 0.086119533 0.68131894
0.038146913 0.08611954 0.68131918
0.042192817 0.08611957 0.68131936
0.044504751 0.086119592 0.68131942
-0.037746582 0.090298362 0.68131572
-0.034100872 0.090165012 0.6813159
-0.030170606 0.090049438 0.68131608
-0.026779788 0.088816427 0.68131614
-0.0086697266 0.088431209 0.68131697
-0.005073397 0.089587204 0.68131721
-0.0017339463 0.090165198 0.68131733
0.0017339466 0.090165228 0.68131757
0.0057798238 0.090165257 0.68131781
0.009440382 0.089972608 0.68131787
0.03433222 0.088893868 0.68131906
0.03826252 0.090049848 0.6813193
0.042048324 0.089443006 0.68131936
0.044504762 0.089009523 0.68131953
-0.037279759 0.093343891 0.6813159
-0.033956379 0.094066404 0.68131596
-0.031018317 0.093825586 0.68131614
-0.0040458748 0.0936331 0.68131745
-0.0017339466 0.094211102 0.68131757
0.0017339471 0.094211116 0.68131775
0.0057798256 0.094211154 0.68131787
0.0089587308 0.093922183 0.68131804
0.038724914 0.093055397 0.68131942
-0.0015027542 0.098025814 0.68131769
0.0017339475 0.098257013 0.68131787
0.005779827 0.098257035 0.6813181
0.0086697415 0.0971011 0.68131816
-0.00096330413 0.10153226 0.68131781
0.0017339479 0.10172493 0.68131804
0.0057798275 0.10172497 0.68131816
