# .PCD v0.7 - Point Cloud Data file format
VERSION 0.7
FIELDS x y z
SIZE 4 4 4
TYPE F F F
COUNT 1 1 1
WIDTH 863
HEIGHT 1
VIEWPOINT 0 0 0 1 0 0 0
POINTS 863
DATA ascii
-0.0053149806 0.092480659 1.1783412
-0.0031889882 0.092480659 1.1783412
-0.0074409624 0.094606519 1.1783395
-0.0053149732 0.094606519 1.1783395
-0.0031889838 0.094606519 1.1783395
0.011808312 0.095539987 1.189966
0.01381893 0.094606519 1.1783395
0.016053259 0.09524934 1.1863459
-0.0074409517 0.096732371 1.1783378
-0.0053149653 0.096732371 1.1783378
-0.0031889793 0.096732371 1.1783378
-0.0010629931 0.096732371 1.1783378
0.011692924 0.096732371 1.1783378
0.01381891 0.096732371 1.1783378
0.015944896 0.096732371 1.1783378
-0.022322822 0.098858215 1.1783361
-0.0074409409 0.098858215 1.1783361
-0.0053149578 0.098858215 1.1783361
-0.0031889747 0.098858215 1.1783361
-0.0010629916 0.098858215 1.1783361
0.0010631604 0.098873921 1.1785233
0.0031986353 0.099157691 1.1819057
0.0053464044 0.099443123 1.1853079
0.0075065731 0.099730186 1.1887295
0.0095669245 0.098858215 1.1783361
0.011692908 0.098858215 1.1783361
0.013818891 0.098858215 1.1783361
0.015944874 0.098858215 1.1783361
-0.024448771 0.10098406 1.1783345
-0.022322789 0.10098404 1.1783344
-0.020196812 0.10098406 1.1783345
-0.018180694 0.10159799 1.1854982
-0.01172051 0.10122259 1.1811178
-0.0095669096 0.10098404 1.1783344
-0.0074409298 0.10098404 1.1783344
-0.0053149504 0.10098406 1.1783345
-0.0031889703 0.10098406 1.1783345
-0.00106299 0.10098406 1.1783345
0.00106299 0.10098406 1.1783345
0.0031889703 0.10098406 1.1783345
0.0053149504 0.10098406 1.1783345
0.0074409298 0.10098404 1.1783344
0.0095669096 0.10098404 1.1783344
0.011692891 0.10098406 1.1783345
0.013818871 0.10098406 1.1783345
0.015944852 0.10098406 1.1783345
-0.024448734 0.10310988 1.1783327
-0.022322757 0.10310988 1.1783327
-0.020196781 0.10310988 1.1783327
-0.018070806 0.10310989 1.1783328
-0.015944829 0.10310989 1.1783328
-0.013818852 0.10310989 1.1783328
-0.011692873 0.10310988 1.1783327
-0.0095668966 0.10310988 1.1783327
-0.0074409191 0.10310988 1.1783327
-0.0053149424 0.10310988 1.1783327
-0.0031889654 0.10310988 1.1783327
-0.0010629885 0.10310989 1.1783328
0.0010629885 0.10310989 1.1783328
0.0031889654 0.10310988 1.1783327
0.0053149424 0.10310988 1.1783327
0.0074409191 0.10310988 1.1783327
0.0095668966 0.10310988 1.1783327
0.011692873 0.10310988 1.1783327
0.013818852 0.10310989 1.1783328
0.015944829 0.10310989 1.1783328
-0.022322726 0.10523571 1.178331
-0.020196753 0.10523571 1.178331
-0.018070778 0.10523571 1.178331
-0.015944805 0.10523571 1.178331
-0.01381883 0.10523571 1.178331
-0.011692856 0.10523571 1.178331
-0.0095668826 0.10523571 1.178331
-0.0074409088 0.10523571 1.178331
-0.005314935 0.10523571 1.178331
-0.003188961 0.10523571 1.178331
-0.0010629869 0.10523571 1.178331
0.0010629869 0.10523571 1.178331
0.003188961 0.10523571 1.178331
0.005314935 0.10523571 1.178331
0.0074409088 0.10523571 1.178331
0.0095668826 0.10523571 1.178331
0.011692856 0.10523571 1.178331
0.01381883 0.10523571 1.178331
0.015944805 0.10523571 1.178331
0.018070778 0.10523571 1.178331
0.02887333 0.10586888 1.1854206
-0.022322694 0.10736153 1.1783293
-0.020196723 0.10736153 1.1783293
-0.018070752 0.10736153 1.1783293
-0.015944783 0.10736153 1.1783293
-0.013818811 0.10736153 1.1783293
-0.01169284 0.10736153 1.1783293
-0.0095668687 0.10736153 1.1783293
-0.0074408981 0.10736153 1.1783293
-0.0053149271 0.10736153 1.1783293
-0.0031889563 0.10736153 1.1783293
-0.0010629855 0.10736153 1.1783293
0.0010629855 0.10736153 1.1783293
0.0031889563 0.10736153 1.1783293
0.0053149271 0.10736153 1.1783293
0.0074408981 0.10736153 1.1783293
0.0095668687 0.10736153 1.1783293
0.01169284 0.10736153 1.1783293
0.013818811 0.10736153 1.1783293
0.015944783 0.10736153 1.1783293
0.018070752 0.10736153 1.1783293
0.020196723 0.10736153 1.1783293
0.022426747 0.10786197 1.1838219
0.024498574 0.1075807 1.1807348
0.026574636 0.10736153 1.1783293
0.028700607 0.10736153 1.1783293
0.030826578 0.10736153 1.1783293
-0.02232266 0.10948733 1.1783276
-0.020196695 0.10948735 1.1783277
-0.018070728 0.10948735 1.1783277
-0.015944758 0.10948735 1.1783277
-0.013818791 0.10948735 1.1783277
-0.011692824 0.10948735 1.1783277
-0.0095668556 0.10948735 1.1783277
-0.0074408879 0.10948735 1.1783277
-0.0053149196 0.10948735 1.1783277
-0.0031889519 0.10948735 1.1783277
-0.001062984 0.10948735 1.1783277
0.001062984 0.10948735 1.1783277
0.0031889519 0.10948735 1.1783277
0.0053149196 0.10948735 1.1783277
0.0074408879 0.10948735 1.1783277
0.0095668556 0.10948735 1.1783277
0.011692824 0.10948735 1.1783277
0.013818791 0.10948735 1.1783277
0.015944758 0.10948735 1.1783277
0.018070728 0.10948735 1.1783277
0.020196695 0.10948735 1.1783277
0.02232266 0.10948733 1.1783276
0.024448628 0.10948733 1.1783276
0.026574599 0.10948735 1.1783277
0.028700566 0.10948735 1.1783277
0.030826535 0.10948735 1.1783277
-0.024448594 0.11161315 1.1783259
-0.022322629 0.11161315 1.1783259
-0.020196665 0.11161315 1.1783259
-0.0180707 0.11161315 1.1783259
-0.015944734 0.11161315 1.1783259
-0.013818772 0.11161315 1.178326
-0.011692807 0.11161315 1.178326
-0.0095668416 0.11161315 1.178326
-0.0074408762 0.11161315 1.1783259
-0.0053149117 0.11161315 1.1783259
-0.003188947 0.11161315 1.1783259
-0.0010629825 0.11161315 1.178326
0.0010629825 0.11161315 1.178326
0.003188947 0.11161315 1.1783259
0.0053149117 0.11161315 1.1783259
0.0074408762 0.11161315 1.1783259
0.0095668416 0.11161315 1.178326
0.011692807 0.11161315 1.178326
0.013818772 0.11161315 1.178326
0.015944734 0.11161315 1.1783259
0.0180707 0.11161315 1.1783259
0.020196665 0.11161315 1.1783259
0.022322629 0.11161315 1.1783259
0.024448594 0.11161315 1.1783259
0.026574558 0.11161315 1.1783259
0.028700523 0.11161315 1.1783259
-0.035193201 0.11411129 1.1821816
-0.03312834 0.11434621 1.1846154
-0.031054977 0.11458216 1.1870598
-0.028973039 0.11481908 1.1895143
-0.02657452 0.11373895 1.1783242
-0.024448559 0.11373895 1.1783242
-0.022322597 0.11373895 1.1783242
-0.020196635 0.11373895 1.1783242
-0.018070674 0.11373895 1.1783242
-0.015944712 0.11373895 1.1783242
-0.013818751 0.11373895 1.1783242
-0.011692789 0.11373895 1.1783242
-0.0095668277 0.11373895 1.1783242
-0.007440866 0.11373895 1.1783242
-0.0053149043 0.11373895 1.1783242
-0.0031889426 0.11373895 1.1783242
-0.0010629809 0.11373895 1.1783242
0.0010629809 0.11373895 1.1783242
0.0031889426 0.11373895 1.1783242
0.0053149043 0.11373895 1.1783242
0.007440866 0.11373895 1.1783242
0.0095668277 0.11373895 1.1783242
0.011692789 0.11373895 1.1783242
0.013818751 0.11373895 1.1783242
0.015944712 0.11373895 1.1783242
0.018070674 0.11373895 1.1783242
0.020196635 0.11373895 1.1783242
0.022322597 0.11373895 1.1783242
0.024448559 0.11373895 1.1783242
0.02657452 0.11373895 1.1783242
0.028700482 0.11373895 1.1783242
-0.035078317 0.11586475 1.1783226
-0.032952361 0.11586475 1.1783226
-0.030826401 0.11586475 1.1783226
-0.028700441 0.11586475 1.1783226
-0.026574483 0.11586475 1.1783226
-0.024448525 0.11586475 1.1783226
-0.022322565 0.11586475 1.1783226
-0.020196607 0.11586475 1.1783226
-0.018070649 0.11586475 1.1783226
-0.01594469 0.11586475 1.1783226
-0.013818732 0.11586475 1.1783226
-0.011692773 0.11586475 1.1783226
-0.0095668137 0.11586475 1.1783226
-0.0074408553 0.11586475 1.1783226
-0.0053148968 0.11586475 1.1783226
-0.0031889379 0.11586475 1.1783226
-0.0010629793 0.11586475 1.1783226
0.0010629793 0.11586475 1.1783226
0.0031889379 0.11586475 1.1783226
0.0053148968 0.11586475 1.1783226
0.0074408553 0.11586475 1.1783226
0.0095668137 0.11586475 1.1783226
0.011692773 0.11586475 1.1783226
0.013818732 0.11586475 1.1783226
0.01594469 0.11586475 1.1783226
0.018070649 0.11586475 1.1783226
0.020196607 0.11586475 1.1783226
0.022322565 0.11586475 1.1783226
0.024448525 0.11586475 1.1783226
0.026574483 0.11586475 1.1783226
-0.035078268 0.11799054 1.1783209
-0.032952312 0.11799054 1.1783209
-0.030826356 0.11799054 1.1783209
-0.028700402 0.11799054 1.1783209
-0.026574446 0.11799054 1.1783209
-0.024448488 0.11799052 1.1783208
-0.022322532 0.11799052 1.1783208
-0.020196579 0.11799054 1.1783209
-0.018070623 0.11799054 1.1783209
-0.015944667 0.11799054 1.1783209
-0.013818712 0.11799054 1.1783209
-0.011692756 0.11799054 1.1783209
-0.0095668007 0.11799054 1.1783209
-0.0074408446 0.11799054 1.1783209
-0.0053148889 0.11799054 1.1783209
-0.0031889335 0.11799054 1.1783209
-0.0010629778 0.11799054 1.1783209
0.0010629778 0.11799054 1.1783209
0.0031889335 0.11799054 1.1783209
0.0053148889 0.11799054 1.1783209
0.0074408446 0.11799054 1.1783209
0.0095668007 0.11799054 1.1783209
0.011692756 0.11799054 1.1783209
0.013818712 0.11799054 1.1783209
0.015944667 0.11799054 1.1783209
0.018070623 0.11799054 1.1783209
0.020196579 0.11799054 1.1783209
0.022322532 0.11799052 1.1783208
0.024448488 0.11799052 1.1783208
0.026574446 0.11799054 1.1783209
0.028700402 0.11799054 1.1783209
-0.032952264 0.12011631 1.1783191
-0.03082631 0.12011631 1.1783191
-0.028700357 0.12011631 1.1783191
-0.026574405 0.12011631 1.1783191
-0.024448453 0.12011631 1.1783191
-0.0223225 0.12011631 1.1783191
-0.020196548 0.12011631 1.1783191
-0.018070595 0.12011631 1.1783191
-0.015944643 0.12011631 1.1783191
-0.013818691 0.12011631 1.1783191
-0.011692738 0.12011631 1.1783191
-0.0095667858 0.12011631 1.1783191
-0.0074408343 0.12011632 1.1783192
-0.0053148814 0.12011632 1.1783192
-0.0031889286 0.12011631 1.1783191
-0.0010629763 0.12011632 1.1783192
0.0010629763 0.12011632 1.1783192
0.0031889286 0.12011631 1.1783191
0.0053148814 0.12011632 1.1783192
0.0074408343 0.12011632 1.1783192
0.0095667858 0.12011631 1.1783191
0.011692738 0.12011631 1.1783191
0.013818691 0.12011631 1.1783191
0.015944643 0.12011631 1.1783191
0.018070595 0.12011631 1.1783191
0.020196548 0.12011631 1.1783191
0.0223225 0.12011631 1.1783191
0.024448453 0.12011631 1.1783191
0.026574405 0.12011631 1.1783191
0.028700357 0.12011631 1.1783191
-0.030826267 0.12224209 1.1783174
-0.028700316 0.12224209 1.1783174
-0.026574368 0.12224209 1.1783174
-0.024448419 0.12224209 1.1783174
-0.022322468 0.12224209 1.1783174
-0.02019652 0.12224209 1.1783174
-0.018070569 0.12224209 1.1783174
-0.015944621 0.12224209 1.1783174
-0.013818671 0.12224209 1.1783174
-0.011692721 0.12224209 1.1783174
-0.0095667727 0.12224209 1.1783174
-0.0074408227 0.12224209 1.1783174
-0.0053148735 0.12224209 1.1783174
-0.0031889242 0.12224209 1.1783174
-0.0010629747 0.12224209 1.1783174
0.0010629747 0.12224209 1.1783174
0.0031889242 0.12224209 1.1783174
0.0053148735 0.12224209 1.1783174
0.0074408227 0.12224209 1.1783174
0.0095667727 0.12224209 1.1783174
0.011692721 0.12224209 1.1783174
0.013818671 0.12224209 1.1783174
0.015944621 0.12224209 1.1783174
0.018070569 0.12224209 1.1783174
0.02019652 0.12224209 1.1783174
0.022322468 0.12224209 1.1783174
0.024448419 0.12224209 1.1783174
0.026574368 0.12224209 1.1783174
0.028700316 0.12224209 1.1783174
0.030826267 0.12224209 1.1783174
0.033160947 0.12301642 1.1857814
0.035398267 0.12335759 1.18907
-0.030826222 0.12436786 1.1783158
-0.028700275 0.12436786 1.1783158
-0.02657433 0.12436786 1.1783158
-0.024448384 0.12436786 1.1783158
-0.022322437 0.12436786 1.1783158
-0.02019649 0.12436786 1.1783158
-0.018070545 0.12436786 1.1783158
-0.015944598 0.12436786 1.1783158
-0.013818651 0.12436786 1.1783158
-0.011692706 0.12436786 1.1783158
-0.0095667588 0.12436786 1.1783158
-0.0074408124 0.12436786 1.1783158
-0.0053148661 0.12436786 1.1783158
-0.0031889195 0.12436786 1.1783158
-0.0010629732 0.12436786 1.1783158
0.0010629732 0.12436786 1.1783158
0.0031889195 0.12436786 1.1783158
0.0053148661 0.12436786 1.1783158
0.0074408124 0.12436786 1.1783158
0.0095667588 0.12436786 1.1783158
0.011692706 0.12436786 1.1783158
0.013818651 0.12436786 1.1783158
0.015944598 0.12436786 1.1783158
0.018070545 0.12436786 1.1783158
0.02019649 0.12436786 1.1783158
0.022322437 0.12436786 1.1783158
0.024448384 0.12436786 1.1783158
0.02657433 0.12436786 1.1783158
0.028700275 0.12436786 1.1783158
0.030826222 0.12436786 1.1783158
0.032952171 0.12436786 1.1783158
0.035078116 0.12436786 1.1783158
0.037204061 0.12436786 1.1783158
-0.030826179 0.12649363 1.1783141
-0.028700236 0.12649363 1.1783141
-0.026574291 0.12649363 1.1783141
-0.024448348 0.12649363 1.1783141
-0.022322405 0.12649363 1.1783141
-0.020196462 0.12649363 1.1783141
-0.018070519 0.12649363 1.1783141
-0.015944576 0.12649363 1.1783141
-0.013818632 0.12649363 1.1783141
-0.011692689 0.12649363 1.1783141
-0.0095667448 0.12649363 1.1783141
-0.0074408017 0.12649363 1.1783141
-0.0053148586 0.12649363 1.1783141
-0.0031889151 0.12649363 1.1783141
-0.0010629717 0.12649363 1.1783141
0.0010629717 0.12649363 1.1783141
0.0031889151 0.12649363 1.1783141
0.0053148586 0.12649363 1.1783141
0.0074408017 0.12649363 1.1783141
0.0095667448 0.12649363 1.1783141
0.011692689 0.12649363 1.1783141
0.013818632 0.12649363 1.1783141
0.015944576 0.12649363 1.1783141
0.018070519 0.12649363 1.1783141
0.020196462 0.12649363 1.1783141
0.022322405 0.12649363 1.1783141
0.024448348 0.12649363 1.1783141
0.026574291 0.12649363 1.1783141
0.028700236 0.12649363 1.1783141
0.030826179 0.12649363 1.1783141
0.032952122 0.12649363 1.1783141
0.035078067 0.12649363 1.1783141
0.037204009 0.12649363 1.1783141
-0.030826135 0.12861939 1.1783124
-0.028700195 0.12861939 1.1783124
-0.026574254 0.12861939 1.1783124
-0.024448315 0.12861939 1.1783124
-0.022322373 0.12861939 1.1783124
-0.020196434 0.12861939 1.1783124
-0.018070493 0.12861939 1.1783124
-0.015944554 0.12861939 1.1783124
-0.013818612 0.12861939 1.1783124
-0.011692672 0.12861939 1.1783124
-0.0095667318 0.12861939 1.1783124
-0.0074407915 0.12861939 1.1783124
-0.0053148507 0.12861939 1.1783124
-0.0031889107 0.12861939 1.1783124
-0.0010629701 0.12861939 1.1783124
0.0010629701 0.12861939 1.1783124
0.0031889107 0.12861939 1.1783124
0.0053148507 0.12861939 1.1783124
0.0074407915 0.12861939 1.1783124
0.0095667318 0.12861939 1.1783124
0.011692672 0.12861939 1.1783124
0.013818612 0.12861939 1.1783124
0.015944554 0.12861939 1.1783124
0.018070493 0.12861939 1.1783124
0.020196434 0.12861939 1.1783124
0.022322373 0.12861939 1.1783124
0.024448315 0.12861939 1.1783124
0.026574254 0.12861939 1.1783124
0.028700195 0.12861939 1.1783124
0.030826135 0.12861939 1.1783124
0.032952074 0.12861939 1.1783124
0.035078015 0.12861939 1.1783124
0.037203956 0.12861939 1.1783124
-0.033125084 0.13143179 1.1844989
-0.030826088 0.13074513 1.1783106
-0.028700151 0.13074513 1.1783106
-0.026574215 0.13074513 1.1783106
-0.024448277 0.13074513 1.1783106
-0.02232234 0.13074513 1.1783106
-0.020196402 0.13074513 1.1783106
-0.018070465 0.13074513 1.1783106
-0.015944529 0.13074513 1.1783106
-0.013818592 0.13074513 1.1783106
-0.011692654 0.13074513 1.1783106
-0.0095667168 0.13074513 1.1783106
-0.0074407798 0.13074513 1.1783106
-0.0053148428 0.13074513 1.1783106
-0.0031889058 0.13074513 1.1783106
-0.0010629685 0.13074513 1.1783106
0.0010629685 0.13074513 1.1783106
0.0031889058 0.13074513 1.1783106
0.0053148428 0.13074513 1.1783106
0.0074407798 0.13074513 1.1783106
0.0095667168 0.13074513 1.1783106
0.011692654 0.13074513 1.1783106
0.013818592 0.13074513 1.1783106
0.015944529 0.13074513 1.1783106
0.018070465 0.13074513 1.1783106
0.020196402 0.13074513 1.1783106
0.02232234 0.13074513 1.1783106
0.024448277 0.13074513 1.1783106
0.026574215 0.13074513 1.1783106
0.028700151 0.13074513 1.1783106
0.030826088 0.13074513 1.1783106
0.032952026 0.13074513 1.1783106
-0.037312329 0.13325833 1.1817448
-0.035077915 0.13287088 1.178309
-0.032951981 0.13287088 1.178309
-0.030826045 0.13287088 1.178309
-0.028700111 0.13287088 1.178309
-0.026574176 0.13287088 1.178309
-0.024448242 0.13287088 1.178309
-0.022322308 0.13287088 1.178309
-0.020196375 0.13287088 1.178309
-0.018070441 0.13287088 1.178309
-0.015944505 0.13287088 1.178309
-0.013818572 0.13287088 1.178309
-0.011692638 0.13287088 1.178309
-0.0095667038 0.13287088 1.178309
-0.0074407696 0.13287088 1.178309
-0.0053148353 0.13287088 1.178309
-0.0031889011 0.13287088 1.178309
-0.0010629671 0.13287088 1.178309
0.0010629671 0.13287088 1.178309
0.0031889011 0.13287088 1.178309
0.0053148353 0.13287088 1.178309
0.0074407696 0.13287088 1.178309
0.0095667038 0.13287088 1.178309
0.011692638 0.13287088 1.178309
0.013818572 0.13287088 1.178309
0.015944505 0.13287088 1.178309
0.018070441 0.13287088 1.178309
0.020196375 0.13287088 1.178309
0.022322308 0.13287088 1.178309
0.024448242 0.13287088 1.178309
0.026574176 0.13287088 1.178309
0.028700111 0.13287088 1.178309
0.030826045 0.13287088 1.178309
-0.037203796 0.13499662 1.1783073
-0.035077862 0.13499662 1.1783073
-0.032951932 0.13499662 1.1783073
-0.030826 0.13499662 1.1783073
-0.02870007 0.13499662 1.1783073
-0.026574139 0.13499662 1.1783073
-0.024448209 0.13499662 1.1783073
-0.022322277 0.13499662 1.1783073
-0.020196345 0.13499662 1.1783073
-0.018070415 0.13499662 1.1783073
-0.015944483 0.13499662 1.1783073
-0.013818553 0.13499662 1.1783073
-0.011692621 0.13499662 1.1783073
-0.0095666898 0.13499662 1.1783073
-0.0074407589 0.13499662 1.1783073
-0.0053148279 0.13499662 1.1783073
-0.0031888967 0.13499662 1.1783073
-0.0010629656 0.13499662 1.1783073
0.0010629656 0.13499662 1.1783073
0.0031888967 0.13499662 1.1783073
0.0053148279 0.13499662 1.1783073
0.0074407589 0.13499662 1.1783073
0.0095666898 0.13499662 1.1783073
0.011692621 0.13499662 1.1783073
0.013818553 0.13499662 1.1783073
0.015944483 0.13499662 1.1783073
0.018070415 0.13499662 1.1783073
0.020196345 0.13499662 1.1783073
0.022322277 0.13499662 1.1783073
0.024448209 0.13499662 1.1783073
0.026574139 0.13499662 1.1783073
0.02870007 0.13499662 1.1783073
0.030826 0.13499662 1.1783073
-0.03720374 0.13712236 1.1783056
-0.035077814 0.13712236 1.1783056
-0.032951884 0.13712236 1.1783056
-0.030825958 0.13712236 1.1783056
-0.028700029 0.13712236 1.1783056
-0.026574101 0.13712236 1.1783056
-0.024448173 0.13712236 1.1783056
-0.022322245 0.13712236 1.1783056
-0.020196317 0.13712236 1.1783056
-0.018070389 0.13712236 1.1783056
-0.01594446 0.13712236 1.1783056
-0.013818532 0.13712236 1.1783056
-0.011692605 0.13712236 1.1783056
-0.0095666768 0.13712236 1.1783056
-0.0074407482 0.13712236 1.1783056
-0.0053148204 0.13712236 1.1783056
-0.0031888923 0.13712236 1.1783056
-0.0010629641 0.13712236 1.1783056
0.0010629641 0.13712236 1.1783056
0.0031888923 0.13712236 1.1783056
0.0053148204 0.13712236 1.1783056
0.0074407482 0.13712236 1.1783056
0.0095666768 0.13712236 1.1783056
0.011692605 0.13712236 1.1783056
0.013818532 0.13712236 1.1783056
0.01594446 0.13712236 1.1783056
0.018070389 0.13712236 1.1783056
0.020196317 0.13712236 1.1783056
0.022322245 0.13712236 1.1783056
0.024448173 0.13712236 1.1783056
0.026574101 0.13712236 1.1783056
0.028700029 0.13712236 1.1783056
0.030825958 0.13712236 1.1783056
-0.030825911 0.13924807 1.1783038
-0.028699988 0.13924809 1.178304
-0.026574064 0.13924809 1.178304
-0.024448138 0.13924809 1.178304
-0.022322213 0.13924809 1.178304
-0.020196289 0.13924809 1.178304
-0.018070363 0.13924809 1.178304
-0.015944438 0.13924809 1.178304
-0.013818513 0.13924809 1.178304
-0.011692588 0.13924809 1.178304
-0.0095666628 0.13924809 1.178304
-0.0074407379 0.13924809 1.178304
-0.0053148125 0.13924809 1.178304
-0.0031888876 0.13924809 1.178304
-0.0010629626 0.13924809 1.178304
0.0010629626 0.13924809 1.178304
0.0031888876 0.13924809 1.178304
0.0053148125 0.13924809 1.178304
0.0074407379 0.13924809 1.178304
0.0095666628 0.13924809 1.178304
0.011692588 0.13924809 1.178304
0.013818513 0.13924809 1.178304
0.015944438 0.13924809 1.178304
0.018070363 0.13924809 1.178304
0.020196289 0.13924809 1.178304
0.022322213 0.13924809 1.178304
0.024448138 0.13924809 1.178304
0.026574064 0.13924809 1.178304
0.028699988 0.13924809 1.178304
0.030825911 0.13924807 1.1783038
-0.028699946 0.1413738 1.1783022
-0.026574023 0.1413738 1.1783022
-0.024448102 0.1413738 1.1783022
-0.02232218 0.1413738 1.1783022
-0.020196257 0.1413738 1.1783022
-0.018070336 0.1413738 1.1783022
-0.015944414 0.1413738 1.1783022
-0.013818492 0.1413738 1.1783022
-0.011692571 0.1413738 1.1783022
-0.0095666489 0.1413738 1.1783022
-0.0074407267 0.1413738 1.1783022
-0.0053148046 0.1413738 1.1783022
-0.0031888827 0.1413738 1.1783022
-0.0010629609 0.1413738 1.1783022
0.0010629609 0.1413738 1.1783022
0.0031888827 0.1413738 1.1783022
0.0053148046 0.1413738 1.1783022
0.0074407267 0.1413738 1.1783022
0.0095666489 0.1413738 1.1783022
0.011692571 0.1413738 1.1783022
0.013818492 0.1413738 1.1783022
0.015944414 0.1413738 1.1783022
0.018070336 0.1413738 1.1783022
0.020196257 0.1413738 1.1783022
0.02232218 0.1413738 1.1783022
0.024448102 0.1413738 1.1783022
0.026574023 0.1413738 1.1783022
0.028699946 0.1413738 1.1783022
0.030825866 0.1413738 1.1783022
0.032951787 0.1413738 1.1783022
-0.028699905 0.14349952 1.1783005
-0.026573986 0.14349952 1.1783005
-0.024448067 0.14349952 1.1783005
-0.022322148 0.14349952 1.1783005
-0.020196229 0.14349952 1.1783005
-0.01807031 0.14349952 1.1783005
-0.015944391 0.14349952 1.1783005
-0.013818473 0.14349952 1.1783005
-0.011692554 0.14349952 1.1783005
-0.0095666349 0.14349952 1.1783005
-0.007440716 0.14349952 1.1783005
-0.0053147972 0.14349952 1.1783005
-0.0031888783 0.14349952 1.1783005
-0.0010629594 0.14349952 1.1783005
0.0010629594 0.14349952 1.1783005
0.0031888783 0.14349952 1.1783005
0.0053147972 0.14349952 1.1783005
0.007440716 0.14349952 1.1783005
0.0095666349 0.14349952 1.1783005
0.011692554 0.14349952 1.1783005
0.013818473 0.14349952 1.1783005
0.015944391 0.14349952 1.1783005
0.01807031 0.14349952 1.1783005
0.020196229 0.14349952 1.1783005
0.022322148 0.14349952 1.1783005
0.024448067 0.14349952 1.1783005
0.026573986 0.14349952 1.1783005
0.028699905 0.14349952 1.1783005
0.030825824 0.14349952 1.1783005
0.032951742 0.14349952 1.1783005
0.035077661 0.14349952 1.1783005
-0.028699864 0.14562523 1.1782988
-0.026573949 0.14562523 1.1782988
-0.024448032 0.14562523 1.1782988
-0.022322116 0.14562523 1.1782988
-0.020196201 0.14562523 1.1782988
-0.018070284 0.14562523 1.1782988
-0.015944369 0.14562523 1.1782988
-0.013818453 0.14562523 1.1782988
-0.011692537 0.14562523 1.1782988
-0.0095666209 0.14562523 1.1782988
-0.0074407053 0.14562523 1.1782988
-0.0053147897 0.14562523 1.1782988
-0.0031888739 0.14562523 1.1782988
-0.0010629579 0.14562523 1.1782988
0.0010629579 0.14562523 1.1782988
0.0031888739 0.14562523 1.1782988
0.0053147897 0.14562523 1.1782988
0.0074407053 0.14562523 1.1782988
0.0095666209 0.14562523 1.1782988
0.011692537 0.14562523 1.1782988
0.013818453 0.14562523 1.1782988
0.015944369 0.14562523 1.1782988
0.018070284 0.14562523 1.1782988
0.020196201 0.14562523 1.1782988
0.022322116 0.14562523 1.1782988
0.024448032 0.14562523 1.1782988
0.026573949 0.14562523 1.1782988
0.028699864 0.14562523 1.1782988
0.030825781 0.14562523 1.1782988
0.032951694 0.14562523 1.1782988
0.035077613 0.14562523 1.1782988
-0.028816249 0.14835031 1.1830771
-0.026573911 0.14775094 1.1782972
-0.024447998 0.14775094 1.1782972
-0.022322085 0.14775094 1.1782972
-0.020196171 0.14775094 1.1782972
-0.018070258 0.14775094 1.1782972
-0.015944347 0.14775094 1.1782972
-0.013818434 0.14775094 1.1782972
-0.01169252 0.14775094 1.1782972
-0.0095666079 0.14775094 1.1782972
-0.0074406951 0.14775094 1.1782972
-0.0053147823 0.14775094 1.1782972
-0.0031888692 0.14775094 1.1782972
-0.0010629564 0.14775094 1.1782972
0.0010629564 0.14775094 1.1782972
0.0031888692 0.14775094 1.1782972
0.0053147823 0.14775094 1.1782972
0.0074406951 0.14775094 1.1782972
0.0095666079 0.14775094 1.1782972
0.01169252 0.14775094 1.1782972
0.013818434 0.14775094 1.1782972
0.015944347 0.14775094 1.1782972
0.018070258 0.14775094 1.1782972
0.020196171 0.14775094 1.1782972
0.022322085 0.14775094 1.1782972
0.024447998 0.14775094 1.1782972
0.026573911 0.14775094 1.1782972
0.032951649 0.14775094 1.1782972
0.035077561 0.14775094 1.1782972
-0.028699782 0.14987664 1.1782955
-0.026573872 0.14987664 1.1782955
-0.024447963 0.14987664 1.1782955
-0.022322053 0.14987664 1.1782955
-0.020196142 0.14987662 1.1782954
-0.018070232 0.14987662 1.1782954
-0.015944324 0.14987664 1.1782955
-0.013818414 0.14987664 1.1782955
-0.011692504 0.14987664 1.1782955
-0.0095665939 0.14987664 1.1782955
-0.0074406844 0.14987664 1.1782955
-0.0053147739 0.14987662 1.1782954
-0.0031888648 0.14987664 1.1782955
-0.0010629549 0.14987664 1.1782955
0.0010629549 0.14987664 1.1782955
0.0031888648 0.14987664 1.1782955
0.0053147739 0.14987662 1.1782954
0.0074406844 0.14987664 1.1782955
0.0095665939 0.14987664 1.1782955
0.011692504 0.14987664 1.1782955
0.013818414 0.14987664 1.1782955
0.015944324 0.14987664 1.1782955
0.018070232 0.14987662 1.1782954
0.020196142 0.14987662 1.1782954
0.022322053 0.14987664 1.1782955
0.024447963 0.14987664 1.1782955
-0.030825648 0.15200233 1.1782938
-0.028699739 0.15200232 1.1782937
-0.026573833 0.15200232 1.1782937
-0.024447925 0.15200232 1.1782937
-0.02232202 0.15200232 1.1782937
-0.020196112 0.15200232 1.1782937
-0.018070206 0.15200232 1.1782937
-0.0159443 0.15200232 1.1782937
-0.013818393 0.15200232 1.1782937
-0.011692488 0.15200233 1.1782938
-0.0095665799 0.15200232 1.1782937
-0.0074406732 0.15200232 1.1782937
-0.0053147664 0.15200232 1.1782937
-0.0031888599 0.15200232 1.1782937
-0.0010629533 0.15200232 1.1782937
0.0010629533 0.15200232 1.1782937
0.0031888599 0.15200232 1.1782937
0.0053147664 0.15200232 1.1782937
0.0074406732 0.15200232 1.1782937
0.0095665799 0.15200232 1.1782937
0.011692488 0.15200233 1.1782938
0.013818393 0.15200232 1.1782937
0.0159443 0.15200232 1.1782937
0.018070206 0.15200232 1.1782937
0.020196112 0.15200232 1.1782937
0.02232202 0.15200232 1.1782937
-0.030825602 0.15412802 1.178292
-0.028699698 0.15412802 1.178292
-0.026573794 0.15412802 1.178292
-0.024447892 0.15412802 1.178292
-0.022321988 0.15412802 1.178292
-0.020196084 0.15412802 1.178292
-0.01807018 0.15412802 1.178292
-0.015944276 0.15412802 1.178292
-0.013818373 0.15412802 1.178292
-0.01169247 0.15412802 1.178292
-0.009566566 0.15412802 1.178292
-0.0074406625 0.15412802 1.178292
-0.005314759 0.15412802 1.178292
-0.0031888555 0.15412802 1.178292
-0.0010629517 0.15412802 1.178292
0.0010629517 0.15412802 1.178292
0.0031888555 0.15412802 1.178292
0.005314759 0.15412802 1.178292
0.0074406625 0.15412802 1.178292
0.009566566 0.15412802 1.178292
0.01169247 0.15412802 1.178292
0.013818373 0.15412802 1.178292
0.015944276 0.15412802 1.178292
0.01807018 0.15412802 1.178292
0.020196084 0.15412802 1.178292
0.022321988 0.15412802 1.178292
-0.028699657 0.1562537 1.1782904
-0.018070156 0.1562537 1.1782904
-0.015944254 0.1562537 1.1782904
-0.013818353 0.1562537 1.1782904
-0.011692453 0.1562537 1.1782904
-0.0095665529 0.1562537 1.1782904
-0.0074406522 0.1562537 1.1782904
-0.0053147515 0.1562537 1.1782904
-0.0031888508 0.1562537 1.1782904
-0.0010629502 0.1562537 1.1782904
0.0010629502 0.1562537 1.1782904
0.0031888508 0.1562537 1.1782904
0.0053147515 0.1562537 1.1782904
0.0074406522 0.1562537 1.1782904
0.0095665529 0.1562537 1.1782904
0.011692453 0.1562537 1.1782904
0.013818353 0.1562537 1.1782904
0.015944254 0.1562537 1.1782904
0.018070156 0.1562537 1.1782904
0.020196056 0.1562537 1.1782904
0.022321956 0.1562537 1.1782904
-0.015944231 0.15837938 1.1782887
-0.013818334 0.15837938 1.1782887
-0.011692436 0.15837938 1.1782887
-0.009566539 0.15837938 1.1782887
-0.0074406415 0.15837938 1.1782887
-0.0053147441 0.15837938 1.1782887
-0.0031888464 0.15837938 1.1782887
-0.0010629488 0.15837938 1.1782887
0.0010629488 0.15837938 1.1782887
0.0031888464 0.15837938 1.1782887
0.0053147441 0.15837938 1.1782887
0.0074406415 0.15837938 1.1782887
0.009566539 0.15837938 1.1782887
0.011692436 0.15837938 1.1782887
0.013818334 0.15837938 1.1782887
0.015944231 0.15837938 1.1782887
0.01807013 0.15837938 1.1782887
0.020196026 0.15837938 1.1782887
0.022321925 0.15837938 1.1782887
0.024447821 0.15837938 1.1782887
-0.015944209 0.16050504 1.178287
-0.013818314 0.16050504 1.178287
-0.01169242 0.16050504 1.178287
-0.0095665259 0.16050504 1.178287
-0.0074406303 0.16050503 1.1782869
-0.0053147362 0.16050504 1.178287
-0.0031888417 0.16050504 1.178287
-0.0010629473 0.16050504 1.178287
0.0010629473 0.16050504 1.178287
0.0031888417 0.16050504 1.178287
0.0053147362 0.16050504 1.178287
0.0074406303 0.16050503 1.1782869
0.0095665259 0.16050504 1.178287
0.01169242 0.16050504 1.178287
0.018070104 0.16050504 1.178287
0.020195998 0.16050504 1.178287
0.022321891 0.16050503 1.1782869
0.024447788 0.16050504 1.178287
-0.015944185 0.16263069 1.1782852
-0.013818294 0.16263069 1.1782852
-0.011692402 0.16263069 1.1782852
-0.009566511 0.16263069 1.1782852
-0.0053147282 0.16263069 1.1782852
-0.0031888371 0.16263069 1.1782852
-0.0010629458 0.16263071 1.1782854
0.0010629458 0.16263071 1.1782854
0.0031888371 0.16263069 1.1782852
0.0053147282 0.16263069 1.1782852
0.0074406196 0.16263069 1.1782852
0.022321859 0.16263069 1.1782852
-0.015944162 0.16475634 1.1782836
-0.013818274 0.16475634 1.1782836
-0.011692386 0.16475634 1.1782836
0.0010629442 0.16475634 1.1782836
0.0031888324 0.16475634 1.1782836
0.0053147208 0.16475634 1.1782836
0.0074406089 0.16475634 1.1782836
-0.01594414 0.16688199 1.1782819
-0.013818255 0.16688199 1.1782819
0.003188828 0.16688199 1.1782819
0.0053147133 0.16688199 1.1782819
0.0074405987 0.16688199 1.1782819
0.0031888233 0.16900764 1.1782802
0.0053147059 0.16900764 1.1782802
