# .PCD v0.7 - Point Cloud Data file format
VERSION 0.7
FIELDS x y z
SIZE 4 4 4
TYPE F F F
COUNT 1 1 1
WIDTH 823
HEIGHT 1
VIEWPOINT 0 0 0 1 0 0 0
POINTS 823
DATA ascii
0.28151923 0.10168945 1.1865654
0.28288063 0.10141004 1.183305
0.28501558 0.10141004 1.183305
0.28715053 0.10141004 1.183305
0.28928548 0.10141004 1.183305
0.29142043 0.10141004 1.183305
0.29355538 0.10141004 1.183305
0.29569033 0.10141004 1.183305
0.29782528 0.10141004 1.183305
0.29996023 0.10141004 1.183305
0.30209517 0.10141004 1.183305
0.30423012 0.10141004 1.183305
0.30636507 0.10141004 1.183305
0.30850002 0.10141004 1.183305
0.31063494 0.10141004 1.183305
0.31276989 0.10141004 1.183305
0.31490484 0.10141004 1.183305
0.31703979 0.10141004 1.183305
0.28093302 0.10361408 1.1840947
0.28280991 0.1035191 1.1830093
0.28494433 0.1035191 1.1830093
0.28707877 0.1035191 1.1830093
0.28921318 0.1035191 1.1830093
0.29134759 0.1035191 1.1830093
0.29348201 0.1035191 1.1830093
0.29561642 0.1035191 1.1830093
0.29775083 0.1035191 1.1830093
0.29988524 0.1035191 1.1830093
0.30201966 0.1035191 1.1830093
0.30415407 0.1035191 1.1830093
0.30628848 0.1035191 1.1830093
0.30842289 0.1035191 1.1830093
0.31055731 0.1035191 1.1830093
0.31269172 0.1035191 1.1830093
0.31482613 0.1035191 1.1830093
0.31696054 0.1035191 1.1830093
0.28013358 0.10625757 1.1897728
0.28067511 0.10565337 1.1830076
0.28280953 0.10565337 1.1830076
0.28494394 0.10565337 1.1830076
0.28707835 0.10565337 1.1830076
0.28921276 0.10565337 1.1830076
0.29134718 0.10565337 1.1830076
0.29348159 0.10565337 1.1830076
0.295616 0.10565337 1.1830076
0.29775041 0.10565337 1.1830076
0.29988483 0.10565337 1.1830076
0.30201924 0.10565337 1.1830076
0.30415365 0.10565337 1.1830076
0.30628806 0.10565337 1.1830076
0.30842248 0.10565337 1.1830076
0.31055689 0.10565337 1.1830076
0.3126913 0.10565337 1.1830076
0.31482571 0.10565337 1.1830076
0.3169601 0.10565337 1.1830076
0.27941993 0.10812802 1.1867418
0.28067473 0.10778763 1.1830059
0.28280911 0.10778762 1.1830058
0.28494352 0.10778762 1.1830058
0.2870779 0.10778762 1.1830058
0.28921235 0.10778763 1.1830059
0.29134676 0.10778763 1.1830059
0.29348117 0.10778763 1.1830059
0.29561558 0.10778763 1.1830059
0.29775 0.10778763 1.1830059
0.29988441 0.10778763 1.1830059
0.30201879 0.10778763 1.1830059
0.3041532 0.10778763 1.1830059
0.30628762 0.10778763 1.1830059
0.30842203 0.10778763 1.1830059
0.31055644 0.10778763 1.1830059
0.31269082 0.10778762 1.1830058
0.31482527 0.10778763 1.1830059
0.31695965 0.10778763 1.1830059
0.27766174 0.11042146 1.1883808
0.27853993 0.10992188 1.1830043
0.28067431 0.10992188 1.1830043
0.28280869 0.10992187 1.1830041
0.2849431 0.10992187 1.1830041
0.28707752 0.10992187 1.1830041
0.28921193 0.10992187 1.1830041
0.29134631 0.10992187 1.1830041
0.29348072 0.10992187 1.1830041
0.29561514 0.10992187 1.1830041
0.29774955 0.10992187 1.1830041
0.29988393 0.10992187 1.1830041
0.30201834 0.10992187 1.1830041
0.30415276 0.10992187 1.1830041
0.30628717 0.10992187 1.1830041
0.30842155 0.10992187 1.1830041
0.31055596 0.10992187 1.1830041
0.31269038 0.10992187 1.1830041
0.31482479 0.10992187 1.1830041
0.31695917 0.10992187 1.1830041
0.2764051 0.11205612 1.1830025
0.27853954 0.11205613 1.1830026
0.28067392 0.11205613 1.1830026
0.2828083 0.11205612 1.1830025
0.28494272 0.11205612 1.1830025
0.2870771 0.11205612 1.1830025
0.28921151 0.11205612 1.1830025
0.29134592 0.11205612 1.1830025
0.29348031 0.11205612 1.1830025
0.29561472 0.11205612 1.1830025
0.2977491 0.11205612 1.1830025
0.30201793 0.11205612 1.1830025
0.30415231 0.11205612 1.1830025
0.30628672 0.11205612 1.1830025
0.30842113 0.11205612 1.1830025
0.31055552 0.11205612 1.1830025
0.31268993 0.11205612 1.1830025
0.31482434 0.11205612 1.1830025
0.31695873 0.11205612 1.1830025
0.27351636 0.11476962 1.1890018
0.2744664 0.114272 1.1838466
0.27640471 0.11419036 1.1830008
0.27853909 0.11419036 1.1830008
0.2806735 0.11419036 1.1830008
0.28280792 0.11419036 1.1830008
0.2849423 0.11419036 1.1830008
0.28707671 0.11419036 1.1830008
0.28921109 0.11419036 1.1830008
0.29134551 0.11419036 1.1830008
0.30859727 0.11425573 1.183678
0.3105551 0.11419036 1.1830008
0.31268948 0.11419036 1.1830008
0.3148239 0.11419036 1.1830008
0.31695828 0.11419036 1.1830008
0.31909269 0.11419036 1.1830008
0.26932105 0.11695616 1.189422
0.27028891 0.11644858 1.18426
0.27213553 0.1163246 1.1829991
0.27426991 0.1163246 1.1829991
0.27640432 0.1163246 1.1829991
0.2785387 0.1163246 1.1829991
0.28067312 0.1163246 1.1829991
0.2828075 0.1163246 1.1829991
0.28494188 0.11632458 1.182999
0.28707626 0.11632458 1.182999
0.31268901 0.11632458 1.182999
0.31482342 0.11632458 1.182999
0.3169578 0.11632458 1.182999
0.31909224 0.1163246 1.1829991
0.26508269 0.11912623 1.1896626
0.26610872 0.11862678 1.1846747
0.26786631 0.11845881 1.1829973
0.27000076 0.11845882 1.1829975
0.27213514 0.11845882 1.1829975
0.27426952 0.11845882 1.1829975
0.27640393 0.11845882 1.1829975
0.27853832 0.11845882 1.1829975
0.2806727 0.11845882 1.1829975
0.28280708 0.11845881 1.1829973
0.28494146 0.11845881 1.1829973
0.31482297 0.11845881 1.1829973
0.31695735 0.11845881 1.1829973
0.31909177 0.11845881 1.1829973
0.32122615 0.11845881 1.1829973
0.17056143 0.12121662 1.1891129
0.17211366 0.12080026 1.1850286
0.17388858 0.12054852 1.182559
0.17602217 0.12054852 1.182559
0.17815578 0.12054852 1.182559
0.23916598 0.12119173 1.1888688
0.24101409 0.12104264 1.1874062
0.24285887 0.12089451 1.185953
0.24470045 0.12074738 1.1845098
0.24653755 0.12060062 1.1830701
0.24865644 0.12059303 1.1829957
0.25079083 0.12059303 1.1829957
0.25292522 0.12059303 1.1829957
0.2550596 0.12059303 1.1829957
0.25719398 0.12059303 1.1829957
0.2593284 0.12059303 1.1829957
0.26146278 0.12059303 1.1829957
0.26359716 0.12059303 1.1829957
0.26573154 0.12059303 1.1829957
0.26786596 0.12059303 1.1829957
0.27000034 0.12059303 1.1829957
0.27213472 0.12059303 1.1829957
0.2742691 0.12059303 1.1829957
0.27640352 0.12059303 1.1829957
0.2785379 0.12059303 1.1829957
0.28067228 0.12059303 1.1829957
0.28280666 0.12059303 1.1829957
0.31582135 0.12097563 1.1867489
0.31695691 0.12059303 1.1829957
0.31909132 0.12059303 1.1829957
0.3212257 0.12059303 1.1829957
0.32336009 0.12059303 1.1829957
0.16819108 0.12319729 1.1875248
0.16962111 0.12268194 1.1825572
0.17175472 0.12268194 1.1825572
0.17388833 0.12268195 1.1825573
0.17602192 0.12268194 1.1825572
0.17815551 0.12268194 1.1825572
0.1802891 0.12268194 1.1825572
0.18242271 0.12268194 1.1825572
0.20709465 0.12339836 1.189463
0.20908578 0.123307 1.1885823
0.21107402 0.1232158 1.1877033
0.21305938 0.12312477 1.1868258
0.21504179 0.12303386 1.1859494
0.21702127 0.12294308 1.1850744
0.21890666 0.1228013 1.1837077
0.22090906 0.12272725 1.182994
0.22304344 0.12272725 1.182994
0.22517782 0.12272725 1.182994
0.22731222 0.12272725 1.182994
0.2294466 0.12272725 1.182994
0.23158099 0.12272725 1.182994
0.23371537 0.12272725 1.182994
0.23584977 0.12272725 1.182994
0.23798415 0.12272725 1.182994
0.24011853 0.12272725 1.182994
0.24225293 0.12272725 1.182994
0.24438731 0.12272725 1.182994
0.2465217 0.12272725 1.182994
0.24865608 0.12272725 1.182994
0.25079048 0.12272725 1.182994
0.25292486 0.12272725 1.182994
0.25505924 0.12272725 1.182994
0.25719362 0.12272725 1.182994
0.25932801 0.12272725 1.182994
0.26146242 0.12272725 1.182994
0.2635968 0.12272725 1.182994
0.26573119 0.12272725 1.182994
0.26786557 0.12272725 1.182994
0.26999995 0.12272725 1.182994
0.27213433 0.12272725 1.182994
0.27426872 0.12272725 1.182994
0.27640313 0.12272725 1.182994
0.27853751 0.12272725 1.182994
0.28067189 0.12272725 1.182994
0.28280628 0.12272725 1.182994
0.31700632 0.12274656 1.1831801
0.31909084 0.12272725 1.182994
0.32122526 0.12272725 1.182994
0.32335964 0.12272725 1.182994
0.16604829 0.12533967 1.1875231
0.16748728 0.12481536 1.1825556
0.16962087 0.12481536 1.1825556
0.17175448 0.12481536 1.1825556
0.17388807 0.12481536 1.1825556
0.17815526 0.12481536 1.1825556
0.18028885 0.12481536 1.1825556
0.18242246 0.12481536 1.1825556
0.18455605 0.12481536 1.1825556
0.18675859 0.12486146 1.1829923
0.18889299 0.12486146 1.1829923
0.19102737 0.12486146 1.1829923
0.19316176 0.12486146 1.1829923
0.19529614 0.12486146 1.1829923
0.19743052 0.12486146 1.1829923
0.1995649 0.12486146 1.1829923
0.20169929 0.12486146 1.1829923
0.20383367 0.12486146 1.1829923
0.20596805 0.12486146 1.1829923
0.20810243 0.12486146 1.1829923
0.21023682 0.12486146 1.1829923
0.2123712 0.12486146 1.1829923
0.2145056 0.12486146 1.1829923
0.21663998 0.12486146 1.1829923
0.21877436 0.12486146 1.1829923
0.22090875 0.12486146 1.1829923
0.22304313 0.12486146 1.1829923
0.22517751 0.12486146 1.1829923
0.22731189 0.12486146 1.1829923
0.22944628 0.12486146 1.1829923
0.23158066 0.12486146 1.1829923
0.23371504 0.12486146 1.1829923
0.23584943 0.12486146 1.1829923
0.23798381 0.12486146 1.1829923
0.24011821 0.12486146 1.1829923
0.24225259 0.12486146 1.1829923
0.24438697 0.12486146 1.1829923
0.24652135 0.12486146 1.1829923
0.24865574 0.12486146 1.1829923
0.25079012 0.12486146 1.1829923
0.2529245 0.12486146 1.1829923
0.25505888 0.12486146 1.1829923
0.25719327 0.12486146 1.1829923
0.25932765 0.12486146 1.1829923
0.26146203 0.12486146 1.1829923
0.26359642 0.12486146 1.1829923
0.2657308 0.12486146 1.1829923
0.26786518 0.12486146 1.1829923
0.26999956 0.12486146 1.1829923
0.27213395 0.12486146 1.1829923
0.27426833 0.12486146 1.1829923
0.27640271 0.12486146 1.1829923
0.27853712 0.12486146 1.1829923
0.28067151 0.12486146 1.1829923
0.31798896 0.12526838 1.1868477
0.3190904 0.12486146 1.1829923
0.32122478 0.12486146 1.1829923
0.32335916 0.12486146 1.1829923
0.16546258 0.12703256 1.1833344
0.16748704 0.12694877 1.1825539
0.16962063 0.12694877 1.1825539
0.18138108 0.12771803 1.1897197
0.18242219 0.12694877 1.1825539
0.18455578 0.12694877 1.1825539
0.18668938 0.12694877 1.1825539
0.18889272 0.12699567 1.1829907
0.1910271 0.12699567 1.1829907
0.19316147 0.12699567 1.1829907
0.19529586 0.12699567 1.1829907
0.19743024 0.12699567 1.1829907
0.19956462 0.12699567 1.1829907
0.201699 0.12699567 1.1829907
0.20383339 0.12699567 1.1829907
0.20596777 0.12699567 1.1829907
0.20810215 0.12699567 1.1829907
0.21023652 0.12699567 1.1829907
0.2123709 0.12699567 1.1829907
0.21450529 0.12699567 1.1829907
0.21663967 0.12699567 1.1829907
0.21877405 0.12699567 1.1829907
0.22090843 0.12699567 1.1829907
0.22304282 0.12699567 1.1829907
0.2251772 0.12699567 1.1829907
0.22731155 0.12699565 1.1829906
0.22944593 0.12699565 1.1829906
0.23158032 0.12699565 1.1829906
0.2337147 0.12699565 1.1829906
0.23584907 0.12699565 1.1829906
0.23798345 0.12699565 1.1829906
0.24011783 0.12699565 1.1829906
0.24225222 0.12699565 1.1829906
0.2443866 0.12699565 1.1829906
0.24652098 0.12699565 1.1829906
0.24865536 0.12699565 1.1829906
0.25078973 0.12699565 1.1829906
0.25292411 0.12699565 1.1829906
0.2550585 0.12699565 1.1829906
0.25719288 0.12699565 1.1829906
0.25932726 0.12699565 1.1829906
0.26146165 0.12699565 1.1829906
0.26359603 0.12699565 1.1829906
0.26573041 0.12699565 1.1829906
0.26786479 0.12699565 1.1829906
0.26999918 0.12699565 1.1829906
0.27213356 0.12699565 1.1829906
0.27426794 0.12699565 1.1829906
0.27640229 0.12699565 1.1829906
0.27853668 0.12699565 1.1829906
0.28067106 0.12699565 1.1829906
0.31845218 0.12759532 1.1885766
0.31908992 0.12699565 1.1829906
0.3212243 0.12699565 1.1829906
0.32335868 0.12699565 1.1829906
0.16535322 0.12908219 1.1825522
0.1674868 0.12908219 1.1825522
0.18242194 0.12908219 1.1825522
0.18455553 0.12908219 1.1825522
0.18668912 0.12908219 1.1825522
0.18889242 0.12912986 1.1829889
0.19102681 0.12912986 1.1829889
0.19316119 0.12912986 1.1829889
0.19529556 0.12912986 1.1829889
0.19742994 0.12912986 1.1829889
0.19956432 0.12912986 1.1829889
0.20169869 0.12912986 1.1829889
0.20383307 0.12912986 1.1829889
0.20596746 0.12912986 1.1829889
0.20810182 0.12912986 1.1829889
0.21023621 0.12912986 1.1829889
0.21237059 0.12912986 1.1829889
0.21450496 0.12912986 1.1829889
0.21663934 0.12912986 1.1829889
0.21877372 0.12912986 1.1829889
0.22090809 0.12912986 1.1829889
0.22304247 0.12912986 1.1829889
0.22517686 0.12912986 1.1829889
0.22731122 0.12912986 1.1829889
0.22944561 0.12912986 1.1829889
0.23157999 0.12912986 1.1829889
0.23371436 0.12912986 1.1829889
0.23584874 0.12912986 1.1829889
0.23798312 0.12912986 1.1829889
0.24011749 0.12912986 1.1829889
0.24225187 0.12912986 1.1829889
0.24438626 0.12912986 1.1829889
0.24652062 0.12912986 1.1829889
0.24865501 0.12912986 1.1829889
0.25078937 0.12912986 1.1829889
0.25292376 0.12912986 1.1829889
0.25505814 0.12912986 1.1829889
0.25719252 0.12912986 1.1829889
0.25932691 0.12912986 1.1829889
0.26146129 0.12912986 1.1829889
0.26359564 0.12912986 1.1829889
0.26573002 0.12912986 1.1829889
0.26786441 0.12912986 1.1829889
0.26999879 0.12912986 1.1829889
0.27213317 0.12912986 1.1829889
0.27426755 0.12912986 1.1829889
0.27640191 0.12912986 1.1829889
0.27853629 0.12912986 1.1829889
0.28067067 0.12912986 1.1829889
0.31908947 0.12912986 1.1829889
0.32122386 0.12912986 1.1829889
0.32335824 0.12912986 1.1829889
0.16535297 0.13121559 1.1825504
0.16748655 0.13121559 1.1825504
0.18242165 0.13121559 1.1825504
0.18455525 0.13121559 1.1825504
0.18668884 0.13121559 1.1825504
0.18889217 0.13126405 1.1829872
0.19102654 0.13126405 1.1829872
0.19316092 0.13126405 1.1829872
0.19529529 0.13126405 1.1829872
0.19742966 0.13126405 1.1829872
0.19956404 0.13126405 1.1829872
0.20169841 0.13126405 1.1829872
0.20383279 0.13126405 1.1829872
0.20596716 0.13126405 1.1829872
0.20810154 0.13126405 1.1829872
0.21023591 0.13126405 1.1829872
0.21237029 0.13126405 1.1829872
0.21450466 0.13126405 1.1829872
0.21663904 0.13126405 1.1829872
0.21877341 0.13126405 1.1829872
0.22090779 0.13126405 1.1829872
0.22304216 0.13126405 1.1829872
0.22517653 0.13126405 1.1829872
0.22731091 0.13126405 1.1829872
0.22944528 0.13126405 1.1829872
0.23157966 0.13126405 1.1829872
0.23371403 0.13126405 1.1829872
0.23584841 0.13126405 1.1829872
0.23798278 0.13126405 1.1829872
0.24011716 0.13126405 1.1829872
0.24225153 0.13126405 1.1829872
0.24438591 0.13126405 1.1829872
0.24652028 0.13126405 1.1829872
0.24865466 0.13126405 1.1829872
0.25078905 0.13126405 1.1829872
0.2529234 0.13126405 1.1829872
0.25505778 0.13126405 1.1829872
0.25719216 0.13126405 1.1829872
0.25932652 0.13126405 1.1829872
0.2614609 0.13126405 1.1829872
0.26359528 0.13126405 1.1829872
0.26572967 0.13126405 1.1829872
0.26786402 0.13126405 1.1829872
0.2699984 0.13126405 1.1829872
0.27213278 0.13126405 1.1829872
0.27426717 0.13126405 1.1829872
0.27640152 0.13126405 1.1829872
0.2785359 0.13126405 1.1829872
0.28067029 0.13126405 1.1829872
0.31911996 0.13127677 1.1831019
0.32122341 0.13126405 1.1829872
0.32335776 0.13126405 1.1829872
0.32549214 0.13126405 1.1829872
0.16535273 0.13334899 1.1825488
0.16748632 0.13334899 1.1825488
0.1696199 0.13334899 1.1825488
0.1824214 0.13334899 1.1825488
0.18455499 0.13334899 1.1825488
0.18668857 0.13334899 1.1825488
0.1888919 0.13339823 1.1829855
0.19102627 0.13339823 1.1829855
0.19316064 0.13339823 1.1829855
0.19529501 0.13339823 1.1829855
0.19742939 0.13339823 1.1829855
0.19956376 0.13339823 1.1829855
0.20169812 0.13339823 1.1829855
0.20383251 0.13339823 1.1829855
0.20596687 0.13339823 1.1829855
0.20810124 0.13339823 1.1829855
0.21023561 0.13339823 1.1829855
0.21236999 0.13339823 1.1829855
0.21450436 0.13339823 1.1829855
0.21663873 0.13339823 1.1829855
0.2187731 0.13339823 1.1829855
0.22090748 0.13339823 1.1829855
0.22304185 0.13339823 1.1829855
0.22517622 0.13339823 1.1829855
0.22731058 0.13339823 1.1829855
0.22944497 0.13339823 1.1829855
0.23157933 0.13339823 1.1829855
0.2337137 0.13339823 1.1829855
0.23584807 0.13339823 1.1829855
0.23798245 0.13339823 1.1829855
0.24011682 0.13339823 1.1829855
0.24225119 0.13339823 1.1829855
0.24438557 0.13339823 1.1829855
0.24651994 0.13339823 1.1829855
0.24865431 0.13339823 1.1829855
0.25078869 0.13339823 1.1829855
0.25292304 0.13339823 1.1829855
0.25505742 0.13339823 1.1829855
0.25719181 0.13339823 1.1829855
0.25932616 0.13339823 1.1829855
0.26146054 0.13339823 1.1829855
0.2635949 0.13339823 1.1829855
0.26572928 0.13339823 1.1829855
0.26786366 0.13339823 1.1829855
0.26999801 0.13339823 1.1829855
0.2721324 0.13339823 1.1829855
0.27426678 0.13339823 1.1829855
0.27640113 0.13339823 1.1829855
0.27853552 0.13339823 1.1829855
0.28066987 0.13339823 1.1829855
0.31856129 0.13407461 1.1889838
0.31908858 0.13339823 1.1829855
0.32122293 0.13339823 1.1829855
0.32335731 0.13339823 1.1829855
0.16559878 0.13568416 1.1843084
0.16748609 0.13548237 1.1825471
0.16961966 0.13548237 1.1825471
0.18034491 0.13552547 1.1829232
0.18242115 0.13548237 1.1825471
0.18455473 0.13548237 1.1825471
0.1866883 0.13548237 1.1825471
0.18889162 0.13553239 1.1829838
0.19102599 0.13553239 1.1829838
0.19316036 0.13553239 1.1829838
0.19529472 0.13553239 1.1829838
0.19742909 0.13553239 1.1829838
0.19956346 0.13553239 1.1829838
0.20169783 0.13553239 1.1829838
0.20383219 0.13553239 1.1829838
0.20596656 0.13553239 1.1829838
0.20810093 0.13553239 1.1829838
0.2102353 0.13553239 1.1829838
0.21236967 0.13553239 1.1829838
0.21450403 0.13553239 1.1829838
0.2166384 0.13553239 1.1829838
0.21877277 0.13553239 1.1829838
0.22090714 0.13553239 1.1829838
0.2230415 0.13553239 1.1829838
0.22517587 0.13553239 1.1829838
0.22731024 0.13553239 1.1829838
0.22944461 0.13553239 1.1829838
0.23157898 0.13553239 1.1829838
0.23371334 0.13553239 1.1829838
0.23584773 0.13553239 1.1829838
0.23798209 0.13553239 1.1829838
0.24011646 0.13553239 1.1829838
0.24225083 0.13553239 1.1829838
0.2443852 0.13553239 1.1829838
0.24651957 0.13553239 1.1829838
0.24865393 0.13553239 1.1829838
0.2507883 0.13553239 1.1829838
0.25292265 0.13553239 1.1829838
0.25505704 0.13553239 1.1829838
0.25719142 0.13553239 1.1829838
0.25932577 0.13553239 1.1829838
0.26146016 0.13553239 1.1829838
0.26359451 0.13553239 1.1829838
0.26572889 0.13553239 1.1829838
0.26786324 0.13553239 1.1829838
0.26999763 0.13553239 1.1829838
0.27213198 0.13553239 1.1829838
0.27426636 0.13553239 1.1829838
0.27640072 0.13553239 1.1829838
0.2785351 0.13553239 1.1829838
0.28066945 0.13553239 1.1829838
0.31816885 0.136052 1.1875191
0.3190881 0.13553239 1.1829838
0.32122245 0.13553239 1.1829838
0.32335684 0.13553239 1.1829838
0.16748585 0.13761576 1.1825454
0.16961943 0.13761576 1.1825454
0.171753 0.13761576 1.1825454
0.17388658 0.13761576 1.1825454
0.17602858 0.13762234 1.182602
0.17815374 0.13761576 1.1825454
0.18028732 0.13761576 1.1825454
0.18242086 0.13761574 1.1825453
0.18455444 0.13761574 1.1825453
0.18675698 0.13766657 1.1829821
0.18889135 0.13766657 1.1829821
0.19102572 0.13766657 1.1829821
0.19316007 0.13766657 1.1829821
0.19529444 0.13766657 1.1829821
0.19742881 0.13766657 1.1829821
0.19956318 0.13766657 1.1829821
0.20169754 0.13766657 1.1829821
0.20383191 0.13766657 1.1829821
0.20596626 0.13766657 1.1829821
0.20810063 0.13766657 1.1829821
0.210235 0.13766657 1.1829821
0.21236937 0.13766657 1.1829821
0.21450374 0.13766657 1.1829821
0.2166381 0.13766657 1.1829821
0.21877246 0.13766657 1.1829821
0.22090682 0.13766657 1.1829821
0.22304119 0.13766657 1.1829821
0.22517556 0.13766657 1.1829821
0.22730993 0.13766657 1.1829821
0.2294443 0.13766657 1.1829821
0.23157866 0.13766657 1.1829821
0.23371302 0.13766657 1.1829821
0.23584738 0.13766657 1.1829821
0.23798175 0.13766657 1.1829821
0.24011612 0.13766657 1.1829821
0.24225049 0.13766657 1.1829821
0.24438486 0.13766657 1.1829821
0.24651921 0.13766657 1.1829821
0.24865358 0.13766657 1.1829821
0.25078794 0.13766657 1.1829821
0.2529223 0.13766657 1.1829821
0.25505668 0.13766657 1.1829821
0.25719103 0.13766657 1.1829821
0.25932541 0.13766657 1.1829821
0.26145977 0.13766657 1.1829821
0.26359415 0.13766657 1.1829821
0.2657285 0.13766657 1.1829821
0.26786286 0.13766657 1.1829821
0.26999724 0.13766657 1.1829821
0.27213159 0.13766657 1.1829821
0.27426597 0.13766657 1.1829821
0.27640033 0.13766657 1.1829821
0.27853471 0.13766657 1.1829821
0.28066906 0.13766657 1.1829821
0.31777737 0.13802452 1.1860579
0.31908765 0.13766657 1.1829821
0.32122201 0.13766657 1.1829821
0.32335636 0.13766657 1.1829821
0.16961917 0.13974912 1.1825436
0.17175274 0.13974912 1.1825436
0.17388631 0.13974912 1.1825436
0.17601989 0.13974912 1.1825436
0.17815347 0.13974912 1.1825436
0.18028703 0.13974912 1.1825436
0.18242061 0.13974912 1.1825436
0.22517525 0.13980074 1.1829804
0.2273096 0.13980074 1.1829804
0.22944397 0.13980074 1.1829804
0.23157834 0.13980074 1.1829804
0.23371269 0.13980074 1.1829804
0.23584706 0.13980074 1.1829804
0.23798142 0.13980074 1.1829804
0.24011578 0.13980074 1.1829804
0.24225014 0.13980074 1.1829804
0.2443845 0.13980074 1.1829804
0.24651887 0.13980074 1.1829804
0.24865323 0.13980074 1.1829804
0.25078759 0.13980074 1.1829804
0.25292197 0.13980074 1.1829804
0.25505632 0.13980074 1.1829804
0.25719067 0.13980074 1.1829804
0.25932503 0.13980074 1.1829804
0.26145941 0.13980074 1.1829804
0.26359376 0.13980074 1.1829804
0.26572812 0.13980074 1.1829804
0.2678625 0.13980074 1.1829804
0.26999685 0.13980074 1.1829804
0.2721312 0.13980074 1.1829804
0.27426559 0.13980074 1.1829804
0.27639994 0.13980074 1.1829804
0.27853429 0.13980074 1.1829804
0.28066868 0.13980074 1.1829804
0.28280303 0.13980074 1.1829804
0.31633407 0.14047377 1.1886755
0.31695282 0.13980074 1.1829804
0.31908718 0.13980074 1.1829804
0.32122156 0.13980074 1.1829804
0.32335591 0.13980074 1.1829804
0.17601964 0.14188249 1.182542
0.25078723 0.1419349 1.1829787
0.25292161 0.1419349 1.1829787
0.25505596 0.1419349 1.1829787
0.25719032 0.1419349 1.1829787
0.25932467 0.1419349 1.1829787
0.26145902 0.1419349 1.1829787
0.26359341 0.1419349 1.1829787
0.26572776 0.1419349 1.1829787
0.26786211 0.1419349 1.1829787
0.26999646 0.1419349 1.1829787
0.27213085 0.1419349 1.1829787
0.2742652 0.1419349 1.1829787
0.27639952 0.14193489 1.1829786
0.27853391 0.1419349 1.1829787
0.28066826 0.1419349 1.1829787
0.28280264 0.1419349 1.1829787
0.31523055 0.14212088 1.1845288
0.31695235 0.14193489 1.1829786
0.3190867 0.14193489 1.1829786
0.32122111 0.1419349 1.1829787
0.26786169 0.14406905 1.182977
0.26999608 0.14406905 1.182977
0.27213043 0.14406905 1.182977
0.27426478 0.14406905 1.182977
0.27639914 0.14406905 1.182977
0.27853349 0.14406905 1.182977
0.28066784 0.14406905 1.182977
0.28280219 0.14406905 1.182977
0.28493658 0.14406906 1.1829771
0.31363589 0.14450799 1.1865813
0.31481755 0.14406905 1.182977
0.3169519 0.14406905 1.182977
0.31908625 0.14406905 1.182977
0.32122061 0.14406905 1.182977
0.27213004 0.14620319 1.1829753
0.2742644 0.14620319 1.1829753
0.27639875 0.14620319 1.1829753
0.2785331 0.14620319 1.1829753
0.28066745 0.14620319 1.1829753
0.28280181 0.14620319 1.1829753
0.28493616 0.14620319 1.1829753
0.28707054 0.1462032 1.1829754
0.31005266 0.14697997 1.1892605
0.31093666 0.14638598 1.1844543
0.31268275 0.14620319 1.1829753
0.3148171 0.14620319 1.1829753
0.31695145 0.14620319 1.1829753
0.31908581 0.14620319 1.1829753
0.27553785 0.14902632 1.1884681
0.27639836 0.14833733 1.1829736
0.27853271 0.14833733 1.1829736
0.28066707 0.14833733 1.1829736
0.28280139 0.14833733 1.1829736
0.28493574 0.14833733 1.1829736
0.2870701 0.14833733 1.1829736
0.28920445 0.14833733 1.1829736
0.2913388 0.14833733 1.1829736
0.30574039 0.14911549 1.1891793
0.30725908 0.14881189 1.1867582
0.30841359 0.14833733 1.1829736
0.31054795 0.14833733 1.1829736
0.3126823 0.14833733 1.1829736
0.31481665 0.14833733 1.1829736
0.31695101 0.14833733 1.1829736
0.27682734 0.15070523 1.1848097
0.2785323 0.15047146 1.1829718
0.28066662 0.15047146 1.1829718
0.282801 0.15047148 1.182972
0.28493536 0.15047148 1.182972
0.28706971 0.15047148 1.182972
0.28920406 0.15047148 1.182972
0.29133838 0.15047148 1.182972
0.29347274 0.15047148 1.182972
0.29560709 0.15047148 1.182972
0.29774144 0.15047148 1.182972
0.2998758 0.15047148 1.182972
0.30201012 0.15047148 1.182972
0.30414447 0.15047148 1.182972
0.30627882 0.15047148 1.182972
0.30841318 0.15047148 1.182972
0.31054753 0.15047148 1.182972
0.31268185 0.15047148 1.182972
0.31481621 0.15047148 1.182972
0.31695056 0.15047148 1.182972
0.27853188 0.15260559 1.1829702
0.28066623 0.15260559 1.1829702
0.28280059 0.15260559 1.1829702
0.28493494 0.15260561 1.1829703
0.28706929 0.15260561 1.1829703
0.28920364 0.15260561 1.1829703
0.291338 0.15260561 1.1829703
0.29347229 0.15260559 1.1829702
0.29560664 0.15260559 1.1829702
0.297741 0.15260559 1.1829702
0.29987532 0.15260559 1.1829702
0.30200967 0.15260559 1.1829702
0.30414402 0.15260559 1.1829702
0.30627835 0.15260559 1.1829702
0.30841273 0.15260561 1.1829703
0.31054708 0.15260561 1.1829703
0.31268144 0.15260561 1.1829703
0.31481576 0.15260561 1.1829703
0.31695008 0.15260559 1.1829702
0.28001341 0.155563 1.1892624
0.28066584 0.15473972 1.1829685
0.28280017 0.15473972 1.1829685
0.28493452 0.15473972 1.1829685
0.28706887 0.15473972 1.1829685
0.2892032 0.15473972 1.1829685
0.29133755 0.15473972 1.1829685
0.29347187 0.15473972 1.1829685
0.29560623 0.15473972 1.1829685
0.29774058 0.15473972 1.1829685
0.2998749 0.15473972 1.1829685
0.30200925 0.15473972 1.1829685
0.30414358 0.15473972 1.1829685
0.30627793 0.15473972 1.1829685
0.30841228 0.15473972 1.1829685
0.31054661 0.15473972 1.1829685
0.31268096 0.15473972 1.1829685
0.31481528 0.15473972 1.1829685
0.31694964 0.15473972 1.1829685
0.28066543 0.15687384 1.1829668
0.28279978 0.15687384 1.1829668
0.2849341 0.15687384 1.1829668
0.28706846 0.15687384 1.1829668
0.28920278 0.15687384 1.1829668
0.29133713 0.15687384 1.1829668
0.29347146 0.15687384 1.1829668
0.29560581 0.15687384 1.1829668
0.29774013 0.15687384 1.1829668
0.29987448 0.15687384 1.1829668
0.30200881 0.15687384 1.1829668
0.30414316 0.15687384 1.1829668
0.30627748 0.15687384 1.1829668
0.30841184 0.15687384 1.1829668
0.31054616 0.15687384 1.1829668
0.31268051 0.15687384 1.1829668
0.31481484 0.15687384 1.1829668
0.31694919 0.15687384 1.1829668
0.28114513 0.15927994 1.1849886
0.28279939 0.15900795 1.1829652
0.28493372 0.15900795 1.1829652
0.28706804 0.15900795 1.1829652
0.28920239 0.15900795 1.1829652
0.29133672 0.15900795 1.1829652
0.29347107 0.15900795 1.1829652
0.29560539 0.15900795 1.1829652
0.29773971 0.15900795 1.1829652
0.29987407 0.15900795 1.1829652
0.30200839 0.15900795 1.1829652
0.30414274 0.15900795 1.1829652
0.30627707 0.15900795 1.1829652
0.30841139 0.15900795 1.1829652
0.31054574 0.15900795 1.1829652
0.31268007 0.15900795 1.1829652
0.31481442 0.15900795 1.1829652
0.31694874 0.15900795 1.1829652
