# .PCD v0.7 - Point Cloud Data file format
VERSION 0.7
FIELDS x y z
SIZE 4 4 4
TYPE F F F
COUNT 1 1 1
WIDTH 1296
HEIGHT 1
VIEWPOINT 0 0 0 1 0 0 0
POINTS 1296
DATA ascii
-0.021630313 -0.012276664 0.68912208
-0.020461062 -0.012276637 0.68912059
-0.019291818 -0.012276612 0.68911916
-0.01812258 -0.012276586 0.68911773
-0.016953345 -0.01227656 0.68911624
-0.015784116 -0.012276535 0.68911481
-0.014614892 -0.012276509 0.68911338
-0.013445672 -0.012276483 0.68911189
-0.012276457 -0.012276457 0.68911046
-0.011107247 -0.012276432 0.68910903
-0.0099380426 -0.012276405 0.68910754
-0.0087688426 -0.012276379 0.68910611
-0.0075996476 -0.012276354 0.68910468
-0.0064304573 -0.012276327 0.68910319
-0.0052612722 -0.012276302 0.68910176
-0.0040920922 -0.012276277 0.68910033
-0.0029229166 -0.01227625 0.68909883
-0.0017537464 -0.012276225 0.6890974
-0.00058458088 -0.012276199 0.68909597
0.00058457965 -0.012276173 0.68909448
0.0017537352 -0.012276147 0.68909305
0.0029228861 -0.012276121 0.68909162
0.0040920316 -0.012276095 0.68909013
0.0052611725 -0.012276069 0.6890887
0.0064303088 -0.012276044 0.68908727
0.0075994395 -0.012276017 0.68908578
0.008768566 -0.012275992 0.68908435
0.0099376868 -0.012275967 0.68908292
0.011106803 -0.01227594 0.68908143
0.012275915 -0.012275915 0.68908
0.013445022 -0.012275889 0.68907857
-0.039168488 -0.011107482 0.68912357
-0.037999202 -0.011107459 0.68912214
-0.036829919 -0.011107435 0.68912071
-0.035660639 -0.011107412 0.68911922
-0.034491364 -0.011107389 0.68911779
-0.033322096 -0.011107366 0.68911636
-0.032152832 -0.011107341 0.68911487
-0.030983573 -0.011107319 0.68911344
-0.02981432 -0.011107296 0.68911201
-0.028645068 -0.011107272 0.68911052
-0.027475825 -0.011107248 0.68910909
-0.026306586 -0.011107226 0.68910766
-0.02513735 -0.011107202 0.68910617
-0.023968121 -0.011107178 0.68910474
-0.022798898 -0.011107155 0.68910331
-0.021629676 -0.011107131 0.68910182
-0.020460462 -0.011107109 0.68910038
-0.019291254 -0.011107085 0.68909895
-0.018122047 -0.011107061 0.68909746
-0.016952848 -0.011107038 0.68909603
-0.015783653 -0.011107015 0.6890946
-0.014614462 -0.011106991 0.68909311
-0.013445277 -0.011106968 0.68909168
-0.012276097 -0.011106945 0.68909025
-0.011106921 -0.011106921 0.68908876
-0.0099377511 -0.011106898 0.68908733
-0.0087685855 -0.011106875 0.6890859
-0.0075994241 -0.011106851 0.68908441
-0.0064302688 -0.011106828 0.68908298
-0.0052611181 -0.011106805 0.68908155
-0.004091972 -0.011106781 0.68908006
-0.0029228309 -0.011106757 0.68907863
-0.001753695 -0.011106734 0.6890772
-0.00058456371 -0.011106711 0.68907571
0.00058456248 -0.011106688 0.68907428
0.0017536839 -0.011106664 0.68907285
0.0029228001 -0.01110664 0.68907136
0.0040919115 -0.011106618 0.68906993
0.0052610184 -0.011106594 0.6890685
0.0064301197 -0.01110657 0.68906701
0.0075992164 -0.011106547 0.68906558
0.0087683089 -0.011106525 0.68906415
0.0099373953 -0.0111065 0.68906265
0.011106477 -0.011106477 0.68906122
0.012275554 -0.011106454 0.68905979
0.013650289 -0.011276325 0.69959885
-0.039167341 -0.0099379821 0.68910336
-0.037998084 -0.0099379607 0.68910187
-0.036828835 -0.0099379402 0.68910044
-0.035659593 -0.0099379197 0.68909901
-0.034490351 -0.0099378973 0.68909752
-0.033321116 -0.0099378768 0.68909609
-0.032151889 -0.0099378563 0.68909466
-0.030982662 -0.0099378349 0.68909317
-0.029813442 -0.0099378144 0.68909174
-0.028644228 -0.0099377939 0.68909031
-0.027475018 -0.0099377725 0.68908882
-0.026305813 -0.009937752 0.68908739
-0.025136614 -0.0099377306 0.68908596
-0.023967417 -0.0099377092 0.68908447
-0.022798227 -0.0099376887 0.68908304
-0.021629043 -0.0099376682 0.68908161
-0.020459861 -0.0099376468 0.68908012
-0.019290686 -0.0099376263 0.68907869
-0.018121516 -0.0099376058 0.68907726
-0.016952349 -0.0099375844 0.68907577
-0.015783189 -0.009937563 0.68907434
-0.014614034 -0.0099375425 0.68907291
-0.013444882 -0.0099375211 0.68907142
-0.012275736 -0.0099375006 0.68906999
-0.011106595 -0.0099374801 0.68906856
-0.0099374596 -0.0099374596 0.68906713
-0.0087683275 -0.0099374382 0.68906564
-0.0075992015 -0.0099374177 0.6890642
-0.0064300802 -0.0099373963 0.68906277
-0.0052609635 -0.0099373749 0.68906128
-0.0040918519 -0.0099373544 0.68905985
-0.0029227452 -0.0099373339 0.68905842
-0.0017536434 -0.0099373125 0.68905693
-0.00058454659 -0.009937292 0.6890555
0.00058454537 -0.0099372715 0.68905407
0.0017536323 -0.0099372501 0.68905258
0.0029227145 -0.0099372286 0.68905115
0.0040917918 -0.0099372081 0.68904972
0.0052608638 -0.0099371867 0.68904823
0.0064299311 -0.0099371662 0.6890468
0.0075989938 -0.0099371457 0.68904537
0.0087680509 -0.0099371243 0.68904388
0.0099371038 -0.0099371038 0.68904245
0.011106151 -0.0099370824 0.68904102
0.012275194 -0.009937061 0.68903953
-0.03916619 -0.0087685501 0.6890831
-0.03799697 -0.0087685315 0.68908167
-0.036827754 -0.0087685138 0.68908024
-0.035658542 -0.0087684942 0.68907875
-0.034489341 -0.0087684765 0.68907732
-0.03332014 -0.0087684579 0.68907589
-0.032150943 -0.0087684393 0.6890744
-0.030981753 -0.0087684207 0.68907297
-0.029812569 -0.008768403 0.68907154
-0.028643386 -0.0087683834 0.68907005
-0.027474212 -0.0087683657 0.68906862
-0.026305042 -0.0087683471 0.68906718
-0.025135875 -0.0087683285 0.68906569
-0.023966715 -0.0087683098 0.68906426
-0.022797558 -0.0087682921 0.68906283
-0.021628406 -0.0087682726 0.68906134
-0.020459261 -0.0087682549 0.68905991
-0.019290119 -0.0087682363 0.68905848
-0.018120984 -0.0087682176 0.68905699
-0.016951852 -0.008768199 0.68905556
-0.015782727 -0.0087681813 0.68905413
-0.014613603 -0.0087681618 0.68905264
-0.013444487 -0.0087681441 0.68905121
-0.012275376 -0.0087681254 0.68904978
-0.011106269 -0.0087681068 0.68904829
-0.0099371672 -0.0087680882 0.68904686
-0.0087680705 -0.0087680705 0.68904543
-0.0075989785 -0.0087680519 0.689044
-0.0064298911 -0.0087680332 0.68904251
-0.0052608089 -0.0087680146 0.68904108
-0.0040917317 -0.0087679969 0.68903965
-0.0029226593 -0.0087679783 0.68903816
-0.0017535919 -0.0087679597 0.68903673
-0.00058452942 -0.008767941 0.6890353
0.00058452814 -0.0087679224 0.68903381
0.0017535809 -0.0087679047 0.68903238
0.0029226288 -0.0087678861 0.68903095
0.0040916712 -0.0087678675 0.68902946
0.0052607092 -0.0087678488 0.68902802
0.0064297426 -0.0087678311 0.68902659
0.0075987703 -0.0087678116 0.6890251
0.0087677939 -0.0087677939 0.68902367
0.0099368123 -0.0087677753 0.68902224
0.011105825 -0.0087677566 0.68902075
-0.040334228 -0.0075992029 0.68906432
-0.039165039 -0.0075991871 0.68906289
-0.037995856 -0.0075991713 0.68906146
-0.036826674 -0.007599155 0.68905997
-0.035657499 -0.0075991391 0.68905854
-0.034488328 -0.0075991233 0.68905711
-0.03331916 -0.007599107 0.68905562
-0.03215 -0.0075990912 0.68905419
-0.030980846 -0.0075990753 0.68905276
-0.029811691 -0.0075990586 0.68905127
-0.028642546 -0.0075990432 0.68904984
-0.027473407 -0.0075990274 0.68904841
-0.026304267 -0.0075990106 0.68904692
-0.025135137 -0.0075989952 0.68904549
-0.023966011 -0.0075989794 0.68904406
-0.022796888 -0.0075989626 0.68904257
-0.021627773 -0.0075989468 0.68904114
-0.020458661 -0.0075989314 0.68903971
-0.019289553 -0.0075989147 0.68903822
-0.018120451 -0.0075988988 0.68903679
-0.016951354 -0.0075988835 0.68903536
-0.015782261 -0.0075988667 0.68903387
-0.014613175 -0.0075988509 0.68903244
-0.013444093 -0.0075988355 0.689031
-0.012275015 -0.0075988187 0.68902951
-0.011105943 -0.0075988029 0.68902808
-0.0099368757 -0.0075987871 0.68902665
-0.0087678125 -0.0075987708 0.68902516
-0.0075987549 -0.0075987549 0.68902373
-0.0064297025 -0.0075987391 0.6890223
-0.0052606547 -0.0075987238 0.68902087
-0.0040916116 -0.007598707 0.68901938
-0.0029225736 -0.0075986912 0.68901795
-0.0017535405 -0.0075986753 0.68901652
-0.00058451225 -0.007598659 0.68901503
0.00058451103 -0.0075986432 0.6890136
0.0017535294 -0.0075986274 0.68901217
0.0029225426 -0.0075986111 0.68901068
0.0040915515 -0.0075985952 0.68900925
0.0052605551 -0.0075985794 0.68900782
0.0064295535 -0.0075985631 0.68900633
0.0075985473 -0.0075985473 0.6890049
0.0087675368 -0.0075985314 0.68900347
0.0099365199 -0.0075985151 0.68900198
-0.040333048 -0.006429906 0.68904412
-0.039163891 -0.0064298925 0.68904269
-0.037994739 -0.006429879 0.6890412
-0.036825594 -0.0064298655 0.68903977
-0.035656452 -0.006429852 0.68903834
-0.034487315 -0.006429838 0.68903685
-0.033318184 -0.006429825 0.68903542
-0.032149058 -0.0064298115 0.68903399
-0.030979933 -0.0064297975 0.6890325
-0.029810818 -0.0064297845 0.68903106
-0.028641706 -0.006429771 0.68902963
-0.027472598 -0.006429757 0.68902814
-0.026303496 -0.0064297435 0.68902671
-0.0251344 -0.0064297304 0.68902528
-0.023965307 -0.0064297165 0.68902379
-0.022796219 -0.006429703 0.68902236
-0.021627137 -0.0064296895 0.68902093
-0.020458059 -0.006429676 0.68901944
-0.019288987 -0.0064296625 0.68901801
-0.01811992 -0.006429649 0.68901658
-0.016950857 -0.006429635 0.68901509
-0.015781799 -0.0064296219 0.68901366
-0.014612746 -0.0064296084 0.68901223
-0.013443698 -0.0064295945 0.68901074
-0.012274656 -0.0064295814 0.68900931
-0.011105618 -0.0064295679 0.68900788
-0.0099365832 -0.006429554 0.68900639
-0.0087675555 -0.0064295405 0.68900496
-0.0075985324 -0.0064295274 0.68900353
-0.0064295139 -0.0064295139 0.6890021
-0.0052605001 -0.0064294999 0.68900061
-0.0040914915 -0.0064294869 0.68899918
-0.0029224879 -0.0064294734 0.68899775
-0.0017534889 -0.0064294594 0.68899626
-0.00058449508 -0.0064294459 0.68899482
0.00058449386 -0.0064294329 0.68899339
0.0017534778 -0.0064294189 0.6889919
0.0029224569 -0.0064294054 0.68899047
0.0040914314 -0.0064293919 0.68898904
0.0052604005 -0.0064293784 0.68898755
0.0064293649 -0.0064293649 0.68898612
0.0075983247 -0.0064293514 0.68898469
0.0087672789 -0.0064293374 0.6889832
-0.040331863 -0.005260678 0.68902391
-0.03916274 -0.0052606664 0.68902242
-0.037993625 -0.0052606557 0.68902099
-0.036824513 -0.0052606449 0.68901956
-0.035655405 -0.0052606333 0.68901807
-0.034486301 -0.0052606226 0.68901664
-0.033317205 -0.0052606114 0.68901521
-0.032148112 -0.0052606002 0.68901372
-0.030979026 -0.0052605891 0.68901229
-0.029809944 -0.0052605784 0.68901086
-0.028640864 -0.0052605667 0.68900937
-0.027471792 -0.005260556 0.68900794
-0.026302725 -0.0052605453 0.68900651
-0.025133662 -0.0052605337 0.68900502
-0.023964604 -0.0052605229 0.68900359
-0.022795551 -0.0052605118 0.68900216
-0.021626502 -0.0052605006 0.68900067
-0.02045746 -0.0052604894 0.68899924
-0.019288423 -0.0052604787 0.68899781
-0.018119387 -0.0052604671 0.68899632
-0.01695036 -0.0052604564 0.68899488
-0.015781336 -0.0052604456 0.68899345
-0.014612317 -0.005260434 0.68899196
-0.013443303 -0.0052604233 0.68899053
-0.012274295 -0.0052604121 0.6889891
-0.011105291 -0.0052604009 0.68898761
-0.0099362917 -0.0052603898 0.68898618
-0.0087672984 -0.0052603791 0.68898475
-0.0075983093 -0.0052603679 0.68898332
-0.0064293249 -0.0052603567 0.68898183
-0.0052603455 -0.0052603455 0.6889804
-0.0040913713 -0.0052603348 0.68897897
-0.002922402 -0.0052603236 0.68897748
-0.0017534376 -0.0052603125 0.68897605
-0.00058447797 -0.0052603018 0.68897462
0.00058447669 -0.0052602901 0.68897313
0.0017534264 -0.0052602794 0.6889717
0.0029223713 -0.0052602682 0.68897027
0.0040913108 -0.0052602571 0.68896878
0.0052602459 -0.0052602459 0.68896735
0.0064291763 -0.0052602352 0.68896592
0.0075981012 -0.005260224 0.68896443
-0.040330678 -0.004091518 0.68900365
-0.039161593 -0.0040915096 0.68900222
-0.037992511 -0.0040915012 0.68900079
-0.036823429 -0.0040914924 0.6889993
-0.035654359 -0.0040914835 0.68899786
-0.034485292 -0.0040914752 0.68899643
-0.033316225 -0.0040914663 0.68899494
-0.032147169 -0.0040914579 0.68899351
-0.030978117 -0.0040914495 0.68899208
-0.029809067 -0.0040914407 0.68899059
-0.028640024 -0.0040914319 0.68898916
-0.027470987 -0.0040914235 0.68898773
-0.026301952 -0.0040914146 0.68898624
-0.025132924 -0.0040914062 0.68898481
-0.0239639 -0.0040913979 0.68898338
-0.02279488 -0.004091389 0.68898189
-0.021625867 -0.0040913802 0.68898046
-0.02045686 -0.0040913718 0.68897903
-0.019287854 -0.0040913629 0.68897754
-0.018118856 -0.0040913546 0.68897611
-0.016949862 -0.0040913462 0.68897468
-0.015780872 -0.0040913373 0.68897319
-0.014611889 -0.0040913285 0.68897176
-0.013442909 -0.0040913201 0.68897033
-0.012273934 -0.0040913112 0.68896884
-0.011104965 -0.0040913029 0.68896741
-0.0099360002 -0.0040912945 0.68896598
-0.0087670414 -0.0040912861 0.68896455
-0.0075980858 -0.0040912773 0.68896306
-0.0064291363 -0.0040912684 0.68896163
-0.0052601914 -0.00409126 0.68896019
-0.0040912512 -0.0040912512 0.6889587
-0.0029223163 -0.0040912428 0.68895727
-0.0017533861 -0.0040912344 0.68895584
-0.00058446074 -0.0040912256 0.68895435
0.00058445957 -0.0040912167 0.68895292
0.0017533751 -0.0040912083 0.68895149
0.0029222853 -0.0040911995 0.68895
0.0040911911 -0.0040911911 0.68894857
0.0052600917 -0.0040911827 0.68894714
0.0064289873 -0.0040911739 0.68894565
-0.040329494 -0.0029224271 0.68898344
-0.039160442 -0.0029224211 0.68898201
-0.037991393 -0.0029224148 0.68898052
-0.036822349 -0.0029224087 0.68897909
-0.035653312 -0.0029224027 0.68897766
-0.034484278 -0.0029223964 0.68897617
-0.033315249 -0.0029223904 0.68897474
-0.032146227 -0.0029223843 0.68897331
-0.030977206 -0.002922378 0.68897182
-0.029808193 -0.0029223717 0.68897039
-0.028639184 -0.0029223657 0.68896896
-0.027470179 -0.0029223594 0.68896747
-0.026301181 -0.0029223533 0.68896604
-0.025132187 -0.0029223473 0.68896461
-0.023963196 -0.002922341 0.68896312
-0.022794213 -0.0029223349 0.68896168
-0.021625234 -0.0029223289 0.68896025
-0.020456258 -0.0029223226 0.68895876
-0.019287288 -0.0029223165 0.68895733
-0.018118324 -0.0029223105 0.6889559
-0.016949363 -0.002922304 0.68895441
-0.01578041 -0.0029222979 0.68895298
-0.014611459 -0.0029222919 0.68895155
-0.013442514 -0.0029222856 0.68895006
-0.012273574 -0.0029222795 0.68894863
-0.01110464 -0.0029222735 0.6889472
-0.0099357096 -0.0029222674 0.68894577
-0.0087667834 -0.0029222611 0.68894428
-0.0075978632 -0.0029222551 0.68894285
-0.0064289477 -0.002922249 0.68894142
-0.0052600368 -0.0029222427 0.68893993
-0.004091131 -0.0029222367 0.6889385
-0.0029222304 -0.0029222304 0.68893707
-0.0017533345 -0.0029222241 0.68893558
-0.00058444362 -0.0029222181 0.68893415
0.0005844424 -0.002922212 0.68893272
0.0017533235 -0.0029222057 0.68893123
0.0029221997 -0.0029221997 0.6889298
0.004091071 -0.0029221936 0.68892837
0.0052599371 -0.0029221873 0.68892688
-0.040328313 -0.0017534049 0.68896323
-0.03915929 -0.0017534011 0.68896174
-0.037990279 -0.0017533975 0.68896031
-0.036821268 -0.0017533938 0.68895888
-0.035652265 -0.0017533901 0.68895739
-0.034483265 -0.0017533863 0.68895596
-0.033314273 -0.0017533827 0.68895453
-0.03214528 -0.001753379 0.68895304
-0.030976297 -0.0017533753 0.68895161
-0.029807318 -0.0017533717 0.68895018
-0.028638342 -0.0017533678 0.68894869
-0.027469372 -0.0017533642 0.68894726
-0.02630041 -0.0017533606 0.68894583
-0.025131447 -0.0017533568 0.68894434
-0.023962494 -0.0017533532 0.68894291
-0.022793544 -0.0017533496 0.68894148
-0.021624597 -0.0017533457 0.68893999
-0.020455658 -0.0017533421 0.68893856
-0.019286724 -0.0017533385 0.68893713
-0.018117791 -0.0017533347 0.68893564
-0.016948866 -0.001753331 0.68893421
-0.015779946 -0.0017533274 0.68893278
-0.014611031 -0.0017533237 0.68893135
-0.01344212 -0.00175332 0.68892986
-0.012273214 -0.0017533163 0.68892843
-0.011104314 -0.0017533127 0.68892699
-0.0099354172 -0.0017533089 0.6889255
-0.0087665264 -0.0017533052 0.68892407
-0.0075976402 -0.0017533016 0.68892264
-0.0064287586 -0.0017532978 0.68892115
-0.0052598827 -0.0017532941 0.68891972
-0.0040910114 -0.0017532905 0.68891829
-0.0029221445 -0.0017532867 0.6889168
-0.0017532831 -0.0017532831 0.68891537
-0.00058442651 -0.0017532795 0.68891394
0.00058442523 -0.0017532756 0.68891245
0.001753272 -0.001753272 0.68891102
0.002922114 -0.0017532684 0.68890959
0.0040909508 -0.0017532647 0.68890816
0.005259783 -0.001753261 0.68890667
-0.041496117 -0.00058445235 0.68894446
-0.040327128 -0.00058445113 0.68894297
-0.039158143 -0.00058444991 0.68894154
-0.037989166 -0.00058444869 0.68894011
-0.036820188 -0.00058444741 0.68893862
-0.035651218 -0.00058444618 0.68893719
-0.034482256 -0.00058444496 0.68893576
-0.033313293 -0.00058444374 0.68893427
-0.032144338 -0.00058444252 0.68893284
-0.030975388 -0.0005844413 0.68893141
-0.029806443 -0.00058444001 0.68892992
-0.028637502 -0.00058443879 0.68892848
-0.027468568 -0.00058443763 0.68892705
-0.026299635 -0.00058443635 0.68892556
-0.02513071 -0.00058443513 0.68892413
-0.02396179 -0.0005844339 0.6889227
-0.022792876 -0.00058443268 0.68892127
-0.021623963 -0.00058443146 0.68891978
-0.020455059 -0.00058443024 0.68891835
-0.019286158 -0.00058442901 0.68891692
-0.01811726 -0.00058442773 0.68891543
-0.01694837 -0.00058442651 0.688914
-0.015779484 -0.00058442535 0.68891257
-0.014610602 -0.00058442407 0.68891108
-0.013441726 -0.00058442284 0.68890965
-0.012272854 -0.00058442162 0.68890822
-0.011103987 -0.00058442034 0.68890673
-0.0099351257 -0.00058441918 0.6889053
-0.0087662693 -0.00058441795 0.68890387
-0.0075974166 -0.00058441667 0.68890238
-0.00642857 -0.00058441545 0.68890095
-0.0052597281 -0.00058441423 0.68889952
-0.0040908912 -0.00058441301 0.68889809
-0.0029220588 -0.00058441178 0.6888966
-0.0017532316 -0.00058441056 0.68889517
-0.00058440934 -0.00058440934 0.68889374
0.00058440806 -0.00058440806 0.68889225
0.0017532206 -0.00058440684 0.68889081
0.0029220283 -0.00058440567 0.68888938
0.0040908307 -0.00058440439 0.68888789
0.0052596284 -0.00058440317 0.68888646
-0.041494898 0.00058443518 0.68892419
-0.040325943 0.00058443396 0.68892276
-0.039156996 0.00058443274 0.68892133
-0.037988048 0.00058443152 0.68891984
-0.036819108 0.00058443029 0.68891841
-0.035650171 0.00058442907 0.68891698
-0.034481239 0.00058442779 0.68891549
-0.033312317 0.00058442657 0.68891406
-0.032143395 0.00058442535 0.68891263
-0.030974479 0.00058442418 0.6889112
-0.029805567 0.0005844229 0.68890971
-0.028636662 0.00058442168 0.68890828
-0.027467761 0.00058442046 0.68890685
-0.026298864 0.00058441918 0.68890536
-0.025129974 0.00058441801 0.68890393
-0.023961088 0.00058441679 0.6889025
-0.022792205 0.00058441551 0.68890101
-0.021623328 0.00058441429 0.68889958
-0.020454457 0.00058441306 0.68889815
-0.019285589 0.00058441184 0.68889666
-0.018116729 0.00058441062 0.68889523
-0.016947873 0.0005844094 0.6888938
-0.01577902 0.00058440812 0.6888923
-0.014610173 0.00058440689 0.68889087
-0.013441331 0.00058440567 0.68888944
-0.012272493 0.00058440445 0.68888795
-0.011103661 0.00058440323 0.68888652
-0.0099348342 0.00058440201 0.68888509
-0.0087660123 0.00058440078 0.68888366
-0.0075971941 0.00058439956 0.68888217
-0.0064283814 0.00058439834 0.68888074
-0.0052595739 0.00058439712 0.68887931
-0.0040907711 0.00058439584 0.68887782
-0.0029219731 0.00058439461 0.68887639
-0.0017531803 0.00058439339 0.68887496
-0.00058439217 0.00058439217 0.68887347
0.00058439095 0.00058439095 0.68887204
0.0017531691 0.00058438972 0.68887061
0.0029219424 0.00058438844 0.68886912
0.0040907105 0.00058438722 0.68886769
-0.04149368 0.0017532541 0.68890399
-0.040324762 0.0017532505 0.68890256
-0.039155845 0.0017532469 0.68890113
-0.037986934 0.001753243 0.68889964
-0.036818027 0.0017532394 0.68889821
-0.035649128 0.0017532357 0.68889678
-0.034480229 0.001753232 0.68889529
-0.033311337 0.0017532284 0.68889385
-0.032142453 0.0017532246 0.68889242
-0.030973569 0.0017532209 0.68889093
-0.029804694 0.0017532173 0.6888895
-0.028635822 0.0017532136 0.68888807
-0.027466955 0.0017532099 0.68888658
-0.026298093 0.0017532061 0.68888515
-0.025129236 0.0017532025 0.68888372
-0.023960384 0.0017531988 0.68888223
-0.022791537 0.0017531951 0.6888808
-0.021622695 0.0017531915 0.68887937
-0.020453855 0.0017531876 0.68887788
-0.019285025 0.001753184 0.68887645
-0.018116197 0.0017531804 0.68887502
-0.016947374 0.0017531766 0.68887353
-0.015778556 0.001753173 0.6888721
-0.014609745 0.0017531693 0.68887067
-0.013440937 0.0017531656 0.68886924
-0.012272133 0.0017531619 0.68886775
-0.011103336 0.0017531583 0.68886632
-0.0099345427 0.0017531546 0.68886489
-0.0087657543 0.0017531508 0.6888634
-0.007596971 0.0017531472 0.68886197
-0.0064281928 0.0017531435 0.68886054
-0.0052594193 0.0017531398 0.68885905
-0.0040906509 0.001753136 0.68885761
-0.0029218874 0.0017531324 0.68885618
-0.0017531287 0.0017531287 0.68885469
-0.000584375 0.001753125 0.68885326
0.00058437377 0.0017531214 0.68885183
0.0017531178 0.0017531178 0.6888504
0.0029218565 0.0017531139 0.68884891
0.0040905909 0.0017531103 0.68884748
-0.041492462 0.0029220046 0.68888378
-0.040323578 0.0029219985 0.68888235
-0.039154693 0.002921992 0.68888086
-0.037985817 0.0029219859 0.68887943
-0.036816947 0.0029219799 0.688878
-0.035648078 0.0029219736 0.68887651
-0.034479216 0.0029219675 0.68887508
-0.033310361 0.0029219615 0.68887365
-0.032141507 0.0029219552 0.68887216
-0.030972661 0.0029219491 0.68887073
-0.02980382 0.0029219431 0.6888693
-0.02863498 0.0029219368 0.68886781
-0.027466148 0.0029219307 0.68886638
-0.026297322 0.0029219247 0.68886495
-0.025128497 0.0029219182 0.68886346
-0.02395968 0.0029219121 0.68886203
-0.022790868 0.0029219061 0.6888606
-0.02162206 0.0029219 0.68885916
-0.020453256 0.0029218937 0.68885767
-0.019284459 0.0029218877 0.68885624
-0.018115666 0.0029218816 0.68885481
-0.016946876 0.0029218753 0.68885332
-0.015778095 0.0029218693 0.68885189
-0.014609315 0.0029218632 0.68885046
-0.013440541 0.0029218569 0.68884897
-0.012271773 0.0029218507 0.68884754
-0.01110301 0.0029218446 0.68884611
-0.0099342503 0.0029218383 0.68884462
-0.0087654972 0.0029218323 0.68884319
-0.0075967484 0.0029218262 0.68884176
-0.0064280042 0.0029218202 0.68884033
-0.0052592647 0.0029218139 0.68883884
-0.0040905308 0.0029218078 0.68883741
-0.0029218018 0.0029218018 0.68883598
-0.0017530773 0.0029217955 0.68883449
-0.00058435788 0.0029217894 0.68883306
0.00058435666 0.0029217834 0.68883163
0.0017530662 0.0029217768 0.68883014
0.0029217708 0.0029217708 0.68882871
0.0040904707 0.0029217647 0.68882728
-0.041491248 0.0040906863 0.68886358
-0.040322393 0.0040906775 0.68886209
-0.039153546 0.0040906691 0.68886065
-0.037984703 0.0040906603 0.68885922
-0.036815863 0.0040906514 0.68885773
-0.035647031 0.004090643 0.6888563
-0.034478206 0.0040906346 0.68885487
-0.033309385 0.0040906263 0.68885344
-0.032140564 0.0040906174 0.68885195
-0.030971752 0.0040906086 0.68885052
-0.029802945 0.0040906002 0.68884909
-0.02863414 0.0040905913 0.6888476
-0.027465343 0.004090583 0.68884617
-0.02629655 0.0040905746 0.68884474
-0.025127759 0.0040905657 0.68884325
-0.023958977 0.0040905569 0.68884182
-0.022790199 0.0040905485 0.68884039
-0.021621425 0.0040905396 0.6888389
-0.020452656 0.0040905313 0.68883747
-0.019283893 0.0040905229 0.68883604
-0.018115133 0.004090514 0.68883455
-0.016946379 0.0040905052 0.68883312
-0.015777631 0.0040904968 0.68883169
-0.014608887 0.0040904884 0.68883026
-0.013440147 0.0040904796 0.68882877
-0.012271414 0.0040904712 0.68882734
-0.011102684 0.0040904628 0.68882591
-0.0099339588 0.004090454 0.68882442
-0.0087652402 0.0040904451 0.68882298
-0.0075965254 0.0040904367 0.68882155
-0.0064278152 0.0040904279 0.68882006
-0.0052591106 0.0040904195 0.68881863
-0.0040904111 0.0040904111 0.6888172
-0.0029217158 0.0040904023 0.68881571
-0.0017530258 0.0040903934 0.68881428
-0.00058434071 0.004090385 0.68881285
0.00058433949 0.0040903767 0.68881142
0.0017530147 0.0040903678 0.68880993
0.0029216851 0.0040903594 0.6888085
-0.04149003 0.0052592997 0.68884337
-0.040321209 0.005259288 0.68884188
-0.039152399 0.0052592773 0.68884045
-0.037983589 0.0052592661 0.68883902
-0.036814783 0.0052592549 0.68883753
-0.035645988 0.0052592442 0.6888361
-0.034477193 0.0052592331 0.68883467
-0.033308405 0.0052592219 0.68883318
-0.032139622 0.0052592107 0.68883175
-0.030970844 0.0052592 0.68883032
-0.029802067 0.0052591884 0.68882883
-0.0286333 0.0052591776 0.6888274
-0.027464537 0.0052591665 0.68882596
-0.026295776 0.0052591553 0.68882447
-0.025127023 0.0052591441 0.68882304
-0.023958275 0.0052591334 0.68882161
-0.02278953 0.0052591227 0.68882018
-0.02162079 0.0052591111 0.68881869
-0.020452056 0.0052591003 0.68881726
-0.019283328 0.0052590892 0.68881583
-0.018114602 0.005259078 0.68881434
-0.016945882 0.0052590668 0.68881291
-0.015777169 0.0052590561 0.68881148
-0.014608458 0.0052590445 0.68880999
-0.013439753 0.0052590338 0.68880856
-0.012271053 0.005259023 0.68880713
-0.011102358 0.0052590114 0.68880564
-0.0099336673 0.0052590007 0.68880421
-0.0087649832 0.0052589895 0.68880278
-0.0075963028 0.0052589788 0.68880135
-0.0064276266 0.0052589672 0.68879986
-0.0052589565 0.0052589565 0.68879843
-0.004090291 0.0052589453 0.688797
-0.0029216302 0.0052589341 0.68879551
-0.0017529743 0.0052589234 0.68879408
-0.0005843236 0.0052589122 0.68879265
0.00058432232 0.005258901 0.68879116
0.0017529633 0.0052588899 0.68878973
0.0029215994 0.0052588792 0.68878829
-0.042657599 0.0064278576 0.68882459
-0.041488808 0.0064278436 0.6888231
-0.040320028 0.0064278301 0.68882167
-0.039151248 0.006427817 0.68882024
-0.037982471 0.0064278031 0.68881875
-0.036813706 0.0064277896 0.68881732
-0.035644941 0.0064277765 0.68881589
-0.03447618 0.0064277626 0.6888144
-0.033307426 0.0064277491 0.68881297
-0.032138679 0.0064277356 0.68881154
-0.030969935 0.0064277225 0.68881011
-0.029801194 0.0064277085 0.68880862
-0.02863246 0.006427695 0.68880719
-0.02746373 0.006427682 0.68880576
-0.026295004 0.006427668 0.68880427
-0.025126286 0.0064276545 0.68880284
-0.023957571 0.006427641 0.68880141
-0.02278886 0.0064276271 0.68879992
-0.021620156 0.006427614 0.68879849
-0.020451456 0.0064276005 0.68879706
-0.01928276 0.0064275865 0.68879557
-0.018114069 0.0064275735 0.68879414
-0.016945386 0.00642756 0.68879271
-0.015776705 0.0064275465 0.68879128
-0.014608029 0.0064275325 0.68878978
-0.013439359 0.0064275195 0.68878835
-0.012270694 0.006427506 0.68878692
-0.011102032 0.006427492 0.68878543
-0.0099333767 0.006427479 0.688784
-0.0087647252 0.0064274655 0.68878257
-0.0075960793 0.0064274515 0.68878108
-0.006427438 0.006427438 0.68877965
-0.0052588023 0.006427425 0.68877822
-0.0040901708 0.0064274115 0.68877679
-0.0029215442 0.0064273975 0.6887753
-0.001752923 0.0064273844 0.68877387
-0.00058430643 0.0064273709 0.68877244
0.00058430521 0.006427357 0.68877095
0.001752912 0.0064273435 0.68876952
0.0029215137 0.0064273304 0.68876809
-0.042656347 0.0075963363 0.68880439
-0.041487593 0.0075963195 0.6888029
-0.040318843 0.0075963037 0.68880147
-0.0391501 0.0075962879 0.68880004
-0.037981357 0.0075962716 0.68879855
-0.036812626 0.0075962557 0.68879712
-0.035643894 0.0075962399 0.68879569
-0.03447517 0.0075962236 0.6887942
-0.03330645 0.0075962078 0.68879277
-0.032137737 0.007596192 0.68879133
-0.030969024 0.0075961757 0.68878984
-0.02980032 0.0075961598 0.68878841
-0.02863162 0.007596144 0.68878698
-0.027462924 0.0075961277 0.68878549
-0.026294233 0.0075961119 0.68878406
-0.025125548 0.007596096 0.68878263
-0.023956869 0.0075960802 0.6887812
-0.022788191 0.0075960639 0.68877971
-0.021619521 0.0075960481 0.68877828
-0.020450857 0.0075960322 0.68877685
-0.019282194 0.0075960159 0.68877536
-0.018113539 0.0075960001 0.68877393
-0.016944889 0.0075959843 0.6887725
-0.015776241 0.007595968 0.68877101
-0.0146076 0.0075959521 0.68876958
-0.013438964 0.0075959363 0.68876815
-0.012270333 0.0075959205 0.68876672
-0.011101706 0.0075959042 0.68876523
-0.0099330852 0.0075958883 0.6887638
-0.0087644681 0.0075958725 0.68876237
-0.0075958562 0.0075958562 0.68876088
-0.0064272494 0.0075958404 0.68875945
-0.0052586477 0.0075958245 0.68875802
-0.0040900507 0.0075958082 0.68875653
-0.0029214586 0.0075957924 0.6887551
-0.0017528716 0.0075957766 0.68875366
-0.00058428932 0.0075957607 0.68875223
0.00058428803 0.0075957444 0.68875074
0.0017528605 0.0075957286 0.68874931
-0.042655095 0.0087647457 0.68878412
-0.041486375 0.008764727 0.68878269
-0.040317662 0.0087647093 0.68878126
-0.039148949 0.0087646898 0.68877977
-0.037980244 0.0087646721 0.68877834
-0.036811545 0.0087646535 0.68877691
-0.035642851 0.0087646358 0.68877548
-0.034474157 0.0087646162 0.68877399
-0.033305474 0.0087645985 0.68877256
-0.032136794 0.0087645799 0.68877113
-0.030968115 0.0087645613 0.68876964
-0.029799445 0.0087645426 0.68876821
-0.02863078 0.0087645249 0.68876678
-0.027462117 0.0087645054 0.68876529
-0.026293462 0.0087644877 0.68876386
-0.025124812 0.0087644691 0.68876243
-0.023956165 0.0087644504 0.68876094
-0.022787523 0.0087644318 0.68875951
-0.021618888 0.0087644141 0.68875808
-0.020450257 0.0087643955 0.68875664
-0.019281629 0.0087643769 0.68875515
-0.018113008 0.0087643582 0.68875372
-0.016944392 0.0087643405 0.68875229
-0.015775779 0.008764321 0.6887508
-0.014607172 0.0087643033 0.68874937
-0.01343857 0.0087642847 0.68874794
-0.012269972 0.008764266 0.68874645
-0.011101381 0.0087642474 0.68874502
-0.0099327937 0.0087642297 0.68874359
-0.0087642111 0.0087642111 0.68874216
-0.0075956332 0.0087641925 0.68874067
-0.0064270613 0.0087641738 0.68873924
-0.0052584936 0.0087641561 0.68873781
-0.0040899306 0.0087641366 0.68873632
-0.0029213729 0.0087641189 0.68873489
-0.0017528201 0.0087641003 0.68873346
-0.00058427209 0.0087640816 0.68873197
0.00058427092 0.008764063 0.68873054
0.001752809 0.0087640453 0.68872911
-0.042653844 0.009933087 0.68876392
-0.041485157 0.0099330656 0.68876249
-0.040316477 0.0099330451 0.68876106
-0.039147802 0.0099330237 0.68875957
-0.03797913 0.0099330032 0.68875813
-0.036810465 0.0099329827 0.6887567
-0.035641801 0.0099329613 0.68875521
-0.034473147 0.0099329408 0.68875378
-0.033304498 0.0099329194 0.68875235
-0.032135852 0.0099328989 0.68875092
-0.030967208 0.0099328775 0.68874943
-0.029798571 0.009932857 0.688748
-0.02862994 0.0099328365 0.68874657
-0.027461313 0.0099328151 0.68874508
-0.026292691 0.0099327946 0.68874365
-0.025124075 0.0099327741 0.68874222
-0.023955461 0.0099327518 0.68874073
-0.022786856 0.0099327313 0.6887393
-0.021618253 0.0099327108 0.68873787
-0.020449655 0.0099326894 0.68873638
-0.019281063 0.0099326689 0.68873495
-0.018112477 0.0099326484 0.68873352
-0.016943894 0.0099326279 0.68873209
-0.015775315 0.0099326065 0.6887306
-0.014606743 0.0099325851 0.68872917
-0.013438176 0.0099325646 0.68872774
-0.012269612 0.0099325432 0.68872625
-0.011101055 0.0099325227 0.68872482
-0.0099325022 0.0099325022 0.68872339
-0.0087639531 0.0099324808 0.6887219
-0.0075954106 0.0099324603 0.68872046
-0.0064268727 0.0099324398 0.68871903
-0.0052583395 0.0099324184 0.6887176
-0.0040898104 0.0099323969 0.68871611
-0.0029212872 0.0099323764 0.68871468
-0.0017527686 0.009932356 0.68871325
-0.00058425497 0.0099323345 0.68871176
0.00058425375 0.009932314 0.68871033
0.0017527576 0.0099322936 0.6887089
-0.042652592 0.01110136 0.68874371
-0.041483942 0.011101336 0.68874228
-0.040315297 0.011101313 0.68874085
-0.039146651 0.01110129 0.68873936
-0.037978016 0.011101266 0.68873793
-0.036809385 0.011101243 0.6887365
-0.035640758 0.011101219 0.68873501
-0.034472134 0.011101196 0.68873358
-0.033303518 0.011101173 0.68873215
-0.032134905 0.011101149 0.68873066
-0.030966299 0.011101126 0.68872923
-0.029797697 0.011101102 0.6887278
-0.0286291 0.01110108 0.68872637
-0.027460506 0.011101056 0.68872488
-0.02629192 0.011101033 0.68872344
-0.025123337 0.011101009 0.68872201
-0.023954758 0.011100986 0.68872052
-0.022786187 0.011100963 0.68871909
-0.021617619 0.011100939 0.68871766
-0.020449055 0.011100915 0.68871617
-0.019280497 0.011100892 0.68871474
-0.018111944 0.01110087 0.68871331
-0.016943397 0.011100846 0.68871188
-0.015774854 0.011100822 0.68871039
-0.014606315 0.011100799 0.68870896
-0.013437781 0.011100776 0.68870753
-0.012269252 0.011100752 0.68870604
-0.011100729 0.011100729 0.68870461
-0.0099322107 0.011100706 0.68870318
-0.0087636961 0.011100682 0.68870169
-0.0075951875 0.011100659 0.68870026
-0.0064266841 0.011100636 0.68869883
-0.0052581849 0.011100613 0.6886974
-0.0040896907 0.011100589 0.68869591
-0.0029212015 0.011100566 0.68869448
-0.0017527173 0.011100543 0.68869305
-0.0005842378 0.011100519 0.68869156
0.00058423664 0.011100495 0.68869013
-0.04265134 0.012269564 0.6887235
-0.041482724 0.012269538 0.68872207
-0.040314112 0.012269513 0.68872064
-0.039145503 0.012269486 0.68871915
-0.037976902 0.012269461 0.68871772
-0.036808304 0.012269435 0.68871629
-0.035639711 0.012269408 0.6887148
-0.034471124 0.012269383 0.68871337
-0.033302542 0.012269357 0.68871194
-0.032133963 0.012269331 0.68871045
-0.03096539 0.012269305 0.68870902
-0.029796822 0.01226928 0.68870759
-0.02862826 0.012269255 0.68870616
-0.027459702 0.012269228 0.68870467
-0.026291149 0.012269203 0.68870324
-0.0251226 0.012269177 0.68870181
-0.023954056 0.01226915 0.68870032
-0.022785518 0.012269125 0.68869889
-0.021616984 0.012269099 0.68869746
-0.020448456 0.012269073 0.68869597
-0.019279933 0.012269047 0.68869454
-0.018111413 0.012269022 0.68869311
-0.016942898 0.012268996 0.68869162
-0.01577439 0.01226897 0.68869019
-0.014605886 0.012268945 0.68868876
-0.013437388 0.012268919 0.68868732
-0.012268892 0.012268892 0.68868583
-0.011100403 0.012268867 0.6886844
-0.0099319192 0.012268841 0.68868297
-0.008763439 0.012268815 0.68868148
-0.0075949649 0.012268789 0.68868005
-0.0064264955 0.012268764 0.68867862
-0.0052580307 0.012268739 0.68867719
-0.0040895706 0.012268712 0.6886757
-0.0029211158 0.012268687 0.68867427
-0.0017526658 0.012268661 0.68867284
-0.00058422069 0.012268635 0.68867135
0.00058421947 0.012268609 0.68866992
-0.043818675 0.013437727 0.68870473
-0.042650089 0.0134377 0.6887033
-0.041481506 0.013437672 0.68870187
-0.040312931 0.013437644 0.68870044
-0.039144356 0.013437614 0.68869895
-0.037975788 0.013437586 0.68869752
-0.036807224 0.013437558 0.68869609
-0.035638664 0.013437529 0.6886946
-0.034470111 0.013437501 0.68869317
-0.033301566 0.013437473 0.68869174
-0.03213302 0.013437444 0.68869025
-0.030964481 0.013437416 0.68868881
-0.029795948 0.013437388 0.68868738
-0.028627418 0.01343736 0.68868589
-0.027458895 0.013437332 0.68868446
-0.026290378 0.013437304 0.68868303
-0.025121864 0.013437276 0.6886816
-0.023953352 0.013437247 0.68868011
-0.02278485 0.013437219 0.68867868
-0.021616351 0.013437191 0.68867725
-0.020447856 0.013437162 0.68867576
-0.019279366 0.013437134 0.68867433
-0.018110882 0.013437106 0.6886729
-0.0169424 0.013437076 0.68867141
-0.015773928 0.013437049 0.68866998
-0.014605458 0.013437022 0.68866855
-0.013436994 0.013436994 0.68866712
-0.012268532 0.013436964 0.68866563
-0.011100078 0.013436936 0.6886642
-0.0099316277 0.013436908 0.68866277
-0.008763182 0.013436879 0.68866128
-0.0075947419 0.013436851 0.68865985
-0.0064263069 0.013436823 0.68865842
-0.0052578766 0.013436795 0.68865699
-0.0040894505 0.013436766 0.6886555
-0.0029210302 0.013436738 0.68865407
-0.0017526144 0.01343671 0.68865263
-0.00058420352 0.013436682 0.68865114
0.00058420235 0.013436654 0.68864971
-0.04381739 0.014605797 0.68868452
-0.042648837 0.014605766 0.68868309
-0.041480288 0.014605735 0.68868166
-0.040311746 0.014605706 0.68868023
-0.039143205 0.014605674 0.68867874
-0.037974674 0.014605643 0.68867731
-0.036806144 0.014605613 0.68867588
-0.035637621 0.014605582 0.68867439
-0.034469102 0.014605551 0.68867296
-0.033300586 0.014605521 0.68867153
-0.032132078 0.01460549 0.68867004
-0.030963574 0.014605459 0.68866861
-0.029795075 0.014605429 0.68866718
-0.028626578 0.014605397 0.68866569
-0.027458088 0.014605367 0.68866426
-0.026289605 0.014605337 0.68866283
-0.025121126 0.014605306 0.6886614
-0.02395265 0.014605274 0.68865991
-0.022784181 0.014605244 0.68865848
-0.021615716 0.014605214 0.68865705
-0.020447254 0.014605182 0.68865556
-0.0192788 0.014605151 0.68865412
-0.01811035 0.014605122 0.68865269
-0.016941905 0.01460509 0.6886512
-0.015773464 0.014605059 0.68864977
-0.014605029 0.014605029 0.68864834
-0.013436599 0.014604999 0.68864691
-0.012268173 0.014604967 0.68864542
-0.011099752 0.014604937 0.68864399
-0.0099313362 0.014604907 0.68864256
-0.0087629249 0.014604875 0.68864107
-0.0075945193 0.014604845 0.68863964
-0.0064261183 0.014604814 0.68863821
-0.005257722 0.014604784 0.68863678
-0.0040893308 0.014604752 0.68863529
-0.0029209445 0.014604722 0.68863386
-0.0017525631 0.014604691 0.68863243
-0.0005841864 0.01460466 0.68863094
-0.043816105 0.015773797 0.68866432
-0.042647585 0.015773764 0.68866289
-0.041479073 0.015773732 0.68866146
-0.040310565 0.015773699 0.68866003
-0.039142057 0.015773665 0.68865854
-0.03797356 0.015773632 0.6886571
-0.036805067 0.0157736 0.68865567
-0.035636574 0.015773565 0.68865418
-0.034468088 0.015773533 0.68865275
-0.03329961 0.015773499 0.68865132
-0.032131135 0.015773466 0.68864983
-0.030962665 0.015773432 0.6886484
-0.029794199 0.015773401 0.68864697
-0.028625738 0.015773365 0.68864548
-0.027457284 0.015773334 0.68864405
-0.026288833 0.0157733 0.68864262
-0.025120389 0.015773268 0.68864119
-0.023951948 0.015773233 0.6886397
-0.022783512 0.015773201 0.68863827
-0.021615082 0.015773168 0.68863684
-0.020446654 0.015773134 0.68863535
-0.019278234 0.015773101 0.68863392
-0.018109819 0.015773069 0.68863249
-0.016941408 0.015773036 0.68863106
-0.015773002 0.015773002 0.68862957
-0.014604601 0.015772969 0.68862814
-0.013436205 0.015772935 0.68862671
-0.012267812 0.015772901 0.68862522
-0.011099426 0.01577287 0.68862379
-0.0099310447 0.015772836 0.68862236
-0.0087626679 0.015772803 0.68862087
-0.0075942962 0.015772769 0.68861943
-0.0064259297 0.015772736 0.688618
-0.0052575679 0.015772704 0.68861657
-0.0040892106 0.015772671 0.68861508
-0.0029208588 0.015772637 0.68861365
-0.0017525116 0.015772603 0.68861222
-0.00058416929 0.015772572 0.68861079
-0.043814819 0.01694173 0.68864411
-0.042646334 0.016941695 0.68864268
-0.041477855 0.016941659 0.68864125
-0.040309381 0.016941624 0.68863982
-0.03914091 0.016941588 0.68863833
-0.037972447 0.016941553 0.6886369
-0.036803987 0.016941518 0.68863547
-0.035635527 0.01694148 0.68863398
-0.034467079 0.016941445 0.68863255
-0.033298634 0.01694141 0.68863112
-0.032130189 0.016941374 0.68862963
-0.030961756 0.016941339 0.6886282
-0.029793326 0.016941303 0.68862677
-0.028624902 0.016941268 0.68862534
-0.027456477 0.016941231 0.68862385
-0.026288062 0.016941195 0.68862242
-0.025119653 0.01694116 0.68862098
-0.023951244 0.016941125 0.68861949
-0.022782844 0.016941089 0.68861806
-0.021614447 0.016941054 0.68861663
-0.020446055 0.016941017 0.68861514
-0.019277669 0.016940981 0.68861371
-0.018109288 0.016940948 0.68861228
-0.016940912 0.016940912 0.68861085
-0.015772538 0.016940875 0.68860936
-0.014604172 0.01694084 0.68860793
-0.013435811 0.016940804 0.6886065
-0.012267453 0.016940767 0.68860501
-0.011099101 0.016940733 0.68860358
-0.0099307541 0.016940698 0.68860215
-0.0087624118 0.016940663 0.68860072
-0.0075940737 0.016940625 0.68859923
-0.0064257411 0.01694059 0.6885978
-0.0052574137 0.016940555 0.68859637
-0.0040890905 0.016940519 0.68859488
-0.0029207729 0.016940484 0.68859345
-0.0017524601 0.016940448 0.68859202
-0.00058415218 0.016940413 0.68859059
-0.043813534 0.018109594 0.68862391
-0.042645082 0.018109556 0.68862247
-0.041476637 0.018109519 0.68862104
-0.0403082 0.01810948 0.68861961
-0.039139759 0.018109441 0.68861812
-0.037971329 0.018109404 0.68861669
-0.036802907 0.018109366 0.68861526
-0.03563448 0.018109327 0.68861377
-0.034466065 0.01810929 0.68861234
-0.033297658 0.018109253 0.68861091
-0.032129247 0.018109212 0.68860942
-0.030960847 0.018109174 0.68860799
-0.029792452 0.018109137 0.68860656
-0.028624061 0.0181091 0.68860513
-0.027455673 0.018109061 0.68860364
-0.026287291 0.018109024 0.68860221
-0.025118915 0.018108984 0.68860078
-0.023950541 0.018108945 0.68859929
-0.022782175 0.018108908 0.68859786
-0.021613814 0.018108871 0.68859643
-0.020445457 0.018108834 0.688595
-0.019277103 0.018108794 0.68859351
-0.018108757 0.018108757 0.68859208
-0.016940415 0.018108718 0.68859065
-0.015772076 0.018108679 0.68858916
-0.014603743 0.018108642 0.68858773
-0.013435416 0.018108604 0.68858629
-0.012267092 0.018108565 0.6885848
-0.011098775 0.018108528 0.68858337
-0.0099304626 0.018108491 0.68858194
-0.0087621547 0.018108452 0.68858051
-0.0075938506 0.018108413 0.68857902
-0.0064255525 0.018108375 0.68857759
-0.0052572596 0.018108338 0.68857616
-0.0040889708 0.018108299 0.68857467
-0.0029206872 0.018108262 0.68857324
-0.0017524087 0.018108223 0.68857181
-0.043812253 0.01927739 0.68860376
-0.04264383 0.019277349 0.68860227
-0.041475423 0.019277308 0.68860084
-0.040307015 0.019277269 0.68859941
-0.039138611 0.019277226 0.68859792
-0.037970215 0.019277187 0.68859649
-0.036801826 0.019277146 0.68859506
-0.035633437 0.019277105 0.68859357
-0.034465056 0.019277064 0.68859214
-0.033296678 0.019277025 0.68859071
-0.032128308 0.019276984 0.68858927
-0.03095994 0.019276943 0.68858778
-0.029791577 0.019276904 0.68858635
-0.028623221 0.019276863 0.68858492
-0.027454866 0.019276822 0.68858343
-0.02628652 0.019276781 0.688582
-0.025118178 0.019276742 0.68858057
-0.023949839 0.019276699 0.68857908
-0.022781506 0.01927666 0.68857765
-0.021613179 0.019276619 0.68857622
-0.020444857 0.01927658 0.68857479
-0.019276537 0.019276537 0.6885733
-0.018108224 0.019276498 0.68857187
-0.016939918 0.019276457 0.68857044
-0.015771613 0.019276416 0.68856895
-0.014603315 0.019276375 0.68856752
-0.013435022 0.019276336 0.68856609
-0.012266734 0.019276295 0.68856466
-0.011098449 0.019276254 0.68856317
-0.0099301711 0.019276215 0.68856174
-0.0087618977 0.019276174 0.68856031
-0.007593628 0.019276133 0.68855882
-0.0064253639 0.019276092 0.68855739
-0.005257105 0.019276053 0.68855596
-0.0040888512 0.019276012 0.68855453
-0.0029206015 0.019275971 0.68855304
-0.0017523573 0.01927593 0.6885516
-0.044979353 0.020445159 0.68858498
-0.043810964 0.020445118 0.68858355
-0.042642582 0.020445073 0.68858206
-0.041474205 0.02044503 0.68858063
-0.040305834 0.020444987 0.6885792
-0.039137464 0.020444945 0.68857771
-0.037969101 0.020444902 0.68857628
-0.036800746 0.020444859 0.68857485
-0.035632394 0.020444816 0.68857342
-0.034464043 0.020444771 0.68857193
-0.033295702 0.02044473 0.6885705
-0.032127365 0.020444687 0.68856907
-0.030959031 0.020444643 0.68856758
-0.029790703 0.0204446 0.68856615
-0.028622381 0.020444557 0.68856472
-0.027454061 0.020444514 0.68856323
-0.026285749 0.020444471 0.6885618
-0.02511744 0.020444429 0.68856037
-0.023949139 0.020444386 0.68855894
-0.022780837 0.020444343 0.68855745
-0.021612545 0.0204443 0.68855602
-0.020444257 0.020444257 0.68855458
-0.019275973 0.020444212 0.68855309
-0.018107694 0.02044417 0.68855166
-0.01693942 0.020444129 0.68855023
-0.015771152 0.020444086 0.6885488
-0.014602887 0.020444041 0.68854731
-0.013434628 0.020443998 0.68854588
-0.012266373 0.020443955 0.68854445
-0.011098123 0.020443913 0.68854296
-0.0099298796 0.02044387 0.68854153
-0.0087616397 0.020443827 0.6885401
-0.0075934059 0.020443784 0.68853867
-0.0064251754 0.020443739 0.68853718
-0.0052569509 0.020443698 0.68853575
-0.004088731 0.020443656 0.68853432
-0.0029205158 0.020443611 0.68853283
-0.0017523059 0.020443568 0.6885314
-0.04497803 0.021612819 0.68856478
-0.043809678 0.021612775 0.68856335
-0.042641331 0.021612728 0.68856186
-0.041472986 0.021612683 0.68856043
-0.04030465 0.021612639 0.688559
-0.039136317 0.021612592 0.68855751
-0.037967987 0.021612547 0.68855608
-0.036799666 0.021612503 0.68855464
-0.035631347 0.021612458 0.68855321
-0.034463033 0.021612411 0.68855172
-0.033294726 0.021612365 0.68855029
-0.032126423 0.02161232 0.68854886
-0.030958122 0.021612274 0.68854737
-0.02978983 0.021612229 0.68854594
-0.028621541 0.021612184 0.68854451
-0.027453259 0.021612139 0.68854308
-0.026284978 0.021612093 0.68854159
-0.025116704 0.021612048 0.68854016
-0.023948435 0.021612003 0.68853873
-0.022780169 0.021611955 0.68853724
-0.02161191 0.02161191 0.68853581
-0.020443657 0.021611866 0.68853438
-0.019275408 0.021611821 0.68853295
-0.018107163 0.021611774 0.68853146
-0.016938923 0.02161173 0.68853003
-0.015770689 0.021611685 0.6885286
-0.014602458 0.021611638 0.68852711
-0.013434233 0.021611594 0.68852568
-0.012266014 0.021611547 0.68852425
-0.011097799 0.021611502 0.68852282
-0.0099295881 0.021611456 0.68852133
-0.0087613827 0.021611411 0.6885199
-0.0075931828 0.021611366 0.68851846
-0.0064249868 0.02161132 0.68851697
-0.0052567967 0.021611275 0.68851554
-0.0040886109 0.02161123 0.68851411
-0.0029204304 0.021611186 0.68851268
-0.044976711 0.022780413 0.68854457
-0.043808393 0.022780364 0.68854314
-0.042640083 0.022780318 0.68854171
-0.041471772 0.022780268 0.68854022
-0.040303469 0.022780221 0.68853879
-0.039135169 0.022780174 0.68853736
-0.037966873 0.022780124 0.68853587
-0.036798585 0.022780078 0.68853444
-0.035630304 0.022780029 0.68853301
-0.03446202 0.022779981 0.68853152
-0.03329375 0.022779932 0.68853009
-0.03212548 0.022779886 0.68852866
-0.030957216 0.022779839 0.68852723
-0.029788954 0.022779789 0.68852574
-0.028620701 0.022779742 0.68852431
-0.027452452 0.022779694 0.68852288
-0.026284207 0.022779645 0.68852139
-0.025115967 0.022779597 0.68851995
-0.023947733 0.02277955 0.68851852
-0.022779504 0.022779504 0.68851709
-0.021611277 0.022779454 0.6885156
-0.020443058 0.022779407 0.68851417
-0.019274842 0.022779359 0.68851274
-0.01810663 0.02277931 0.68851125
-0.016938426 0.022779262 0.68850982
-0.015770227 0.022779215 0.68850839
-0.014602031 0.022779169 0.68850696
-0.013433839 0.022779118 0.68850547
-0.012265653 0.022779072 0.68850404
-0.011097473 0.022779023 0.68850261
-0.0099292966 0.022778975 0.68850112
-0.0087611256 0.022778926 0.68849969
-0.0075929598 0.02277888 0.68849826
-0.0064247991 0.022778833 0.68849683
-0.0052566421 0.022778783 0.68849534
-0.0040884912 0.022778736 0.68849391
-0.0029203447 0.022778688 0.68849248
-0.044975393 0.023947936 0.68852437
-0.043807108 0.023947885 0.68852293
-0.042638831 0.023947837 0.6885215
-0.041470554 0.023947785 0.68852001
-0.040302284 0.023947734 0.68851858
-0.039134022 0.023947684 0.68851715
-0.03796576 0.023947634 0.68851566
-0.036797505 0.023947584 0.68851423
-0.035629258 0.023947533 0.6885128
-0.034461014 0.023947483 0.68851137
-0.03329277 0.023947433 0.68850988
-0.032124538 0.023947382 0.68850845
-0.030956307 0.023947332 0.68850702
-0.029788081 0.02394728 0.68850553
-0.028619861 0.023947231 0.6885041
-0.027451647 0.023947181 0.68850267
-0.026283437 0.023947131 0.68850124
-0.025115229 0.023947079 0.68849975
-0.02394703 0.02394703 0.68849832
-0.022778835 0.02394698 0.68849689
-0.021610642 0.023946928 0.6884954
-0.020442458 0.023946878 0.68849397
-0.019274278 0.023946829 0.68849254
-0.018106101 0.023946779 0.68849111
-0.016937928 0.023946727 0.68848962
-0.015769763 0.023946676 0.68848819
-0.014601602 0.023946628 0.68848675
-0.013433445 0.023946576 0.68848526
-0.012265294 0.023946526 0.68848383
-0.011097147 0.023946477 0.6884824
-0.009929006 0.023946427 0.68848097
-0.0087608686 0.023946375 0.68847948
-0.0075927372 0.023946324 0.68847805
-0.0064246105 0.023946276 0.68847662
-0.0052564885 0.023946226 0.68847519
-0.0040883711 0.023946173 0.6884737
-0.002920259 0.023946123 0.68847227
-0.04497407 0.025115391 0.68850416
-0.043805823 0.025115339 0.68850273
-0.042637579 0.025115287 0.6885013
-0.041469339 0.025115235 0.68849987
-0.040301103 0.025115179 0.68849838
-0.039132874 0.025115127 0.68849695
-0.037964649 0.025115075 0.68849552
-0.036796425 0.025115021 0.68849403
-0.035628211 0.025114968 0.6884926
-0.034460001 0.025114916 0.68849117
-0.033291794 0.025114862 0.68848968
-0.032123595 0.02511481 0.68848825
-0.030955398 0.025114758 0.68848681
-0.029787209 0.025114706 0.68848538
-0.028619021 0.025114652 0.68848389
-0.027450841 0.0251146 0.68848246
-0.026282666 0.025114547 0.68848103
-0.025114493 0.025114493 0.68847954
-0.023946326 0.025114441 0.68847811
-0.022778166 0.025114389 0.68847668
-0.02161001 0.025114337 0.68847525
-0.020441858 0.025114281 0.68847376
-0.019273711 0.025114229 0.68847233
-0.01810557 0.025114177 0.6884709
-0.016937431 0.025114123 0.68846941
-0.015769301 0.025114071 0.68846798
-0.014601174 0.025114018 0.68846655
-0.013433052 0.025113966 0.68846512
-0.012264933 0.025113912 0.68846363
-0.011096822 0.02511386 0.6884622
-0.0099287145 0.025113808 0.68846077
-0.0087606125 0.025113756 0.68845934
