# .PCD v0.7 - Point Cloud Data file format
VERSION 0.7
FIELDS x y z
SIZE 4 4 4
TYPE F F F
COUNT 1 1 1
WIDTH 748
HEIGHT 1
VIEWPOINT 0 0 0 1 0 0 0
POINTS 748
DATA ascii
0.010059072 -0.028993795 0.69749975
0.0072188638 -0.025206853 0.69749975
0.010059073 -0.026035244 0.69749975
0.01321486 -0.025049061 0.69749975
0.0029585506 -0.020709855 0.69749981
0.006078477 -0.021785693 0.69749981
0.010059073 -0.021893276 0.69749981
0.014201044 -0.021893276 0.69749981
0.01810633 -0.021183224 0.69749981
-0.00059171021 -0.017159596 0.69749987
0.0019230579 -0.018195089 0.69749981
0.0059171016 -0.018343017 0.69749981
0.010059073 -0.018343015 0.69749981
0.014201044 -0.018343015 0.69749981
0.018343015 -0.018343015 0.69749981
0.021498801 -0.017948542 0.69749981
-0.013609334 -0.012425913 0.69749993
-0.0098223891 -0.012899281 0.69749987
-0.0056804181 -0.013372649 0.69749981
-0.0016675468 -0.014039669 0.69749981
0.0017751306 -0.014201045 0.69749981
0.0059171021 -0.014201045 0.69749993
0.010059074 -0.014201045 0.69749981
0.014201045 -0.014201044 0.69749993
0.018343017 -0.014201044 0.69749981
0.021893278 -0.014201044 0.69749981
0.025443535 -0.013609333 0.69749981
0.028993798 -0.012425913 0.69749987
-0.020709857 -0.0088756531 0.69749987
-0.018195089 -0.009911146 0.69749981
-0.014201045 -0.010059074 0.69749981
-0.010059074 -0.010059074 0.69749981
-0.0059171021 -0.010059074 0.69749981
-0.0017751306 -0.010059074 0.69749987
0.0017751306 -0.010059074 0.69749981
0.0059171021 -0.010059074 0.69749981
0.010059074 -0.010059074 0.69749981
0.014201045 -0.010059074 0.69749981
0.018343017 -0.010059074 0.69749981
0.021893278 -0.010059074 0.69749981
0.026035244 -0.010059074 0.69749981
0.030029291 -0.009911146 0.69749981
0.032544062 -0.0088756531 0.69749987
-0.025443541 -0.0048182118 0.69749987
-0.021893278 -0.0059171021 0.69749981
-0.018343017 -0.0059171021 0.69749981
-0.014201045 -0.0059171026 0.69749993
-0.010059074 -0.0059171021 0.69749981
-0.0060861628 -0.0061706924 0.69749987
-0.0017751306 -0.0065088128 0.69749987
0.0017751306 -0.0065088128 0.69749987
0.0060861628 -0.0061706924 0.69749987
0.010059074 -0.0059171026 0.69749981
0.014201045 -0.0059171021 0.69749993
0.018343017 -0.0059171021 0.69749981
0.021893278 -0.0059171021 0.69749981
0.026035253 -0.0059171021 0.69749993
0.030177219 -0.0059171021 0.69749981
0.033619896 -0.0057557267 0.69749981
0.036488798 -0.0045364448 0.69749993
-0.02978275 -0.0013806572 0.69749993
-0.026035255 -0.0017751306 0.69749981
-0.021893278 -0.0017751309 0.69749987
-0.018343017 -0.0017751306 0.69749987
-0.014792755 -0.0022823107 0.69749987
-0.011242495 -0.0029585513 0.69749993
0.011242495 -0.0029585513 0.69749993
0.014644828 -0.0022189135 0.69749987
0.018343017 -0.0017751309 0.69749987
0.021893278 -0.0017751309 0.69749987
0.026035255 -0.0017751306 0.69749981
0.030177223 -0.0017751306 0.69749987
0.033727482 -0.0017751309 0.69749987
0.037708078 -0.0016675469 0.69749981
0.041222479 -0.00098618364 0.69749993
-0.03293854 0.002564078 0.69749999
-0.030177223 0.0017751309 0.69749993
-0.026035255 0.0017751307 0.69749993
-0.02189328 0.0017751309 0.69749993
-0.018638872 0.00088756537 0.69749993
0.018645786 0.00088780373 0.69778097
0.022041207 0.0016272033 0.69749993
0.026035255 0.0017751307 0.69749993
0.030177223 0.0017751309 0.69749993
0.033727482 0.0017751309 0.69749987
0.037869453 0.0017751307 0.69749981
0.042011429 0.0017751306 0.69749987
0.044772744 0.0025640777 0.69749993
-0.036094327 0.0076922337 0.69749999
-0.033619907 0.0060784784 0.69750005
-0.030177226 0.0059171026 0.69750005
-0.026153598 0.0057987603 0.69750011
-0.022682229 0.0045364457 0.69749999
0.022682229 0.0045364457 0.69749999
0.026153598 0.0057987603 0.69750011
0.030177226 0.0059171026 0.69750005
0.033727489 0.0059171026 0.69750005
0.037869461 0.0059171026 0.69750011
0.042011436 0.0059171026 0.69750005
0.046035063 0.0060354448 0.69750011
0.04999952 0.0073963786 0.69749999
-0.03688328 0.010453549 0.69750005
-0.033727493 0.010059075 0.69749999
-0.030177223 0.010059074 0.69749999
-0.026965082 0.0098900143 0.69749993
0.027021438 0.0096646016 0.69750005
0.030177226 0.010059074 0.69750011
0.033727489 0.010059074 0.69750005
0.037869465 0.010059074 0.69750005
0.042011432 0.010059074 0.69749999
0.046153408 0.010059074 0.69750005
0.050295379 0.010059074 0.69749999
0.052662212 0.010059074 0.69749999
-0.037277754 0.014201046 0.69750017
-0.033727493 0.014201046 0.69750017
-0.030177228 0.014201046 0.69750017
-0.027837846 0.013031065 0.69818878
0.027810385 0.012425917 0.69750005
0.030177228 0.014201046 0.69750017
0.033727493 0.014201046 0.69750017
0.037869465 0.014201046 0.69750017
0.042011436 0.014201046 0.69750017
0.046153404 0.014201046 0.69750017
0.050058693 0.013964362 0.69750005
-0.037869465 0.018343018 0.69750017
-0.033727493 0.018343018 0.69750011
-0.030768936 0.018343018 0.69750005
0.03051728 0.018175106 0.6975466
0.033727493 0.018343018 0.69750011
0.037869465 0.018343018 0.69750017
0.042011436 0.018343018 0.69750011
0.046153408 0.018343018 0.69750017
0.049111959 0.01834302 0.69750005
-0.037869465 0.021893287 0.69750017
-0.033727493 0.021893285 0.69750011
-0.03076894 0.021893283 0.69750017
0.030898357 0.021664632 0.69775599
0.033727493 0.021893285 0.69750017
0.037869465 0.021893283 0.69750017
0.042011436 0.021893283 0.69750011
0.046153411 0.02189328 0.69750017
-0.040828016 0.026626967 0.69750005
-0.037869465 0.026035262 0.69750017
-0.033727493 0.026035262 0.69750017
-0.030983062 0.025655022 0.69789034
0.030980162 0.026442071 0.69782335
0.033727493 0.026035262 0.69750017
0.037869461 0.026035262 0.69750017
0.042011436 0.026035262 0.69750017
0.046153404 0.026035262 0.69750017
-0.044378284 0.031360652 0.69750017
-0.041863512 0.030325159 0.69750017
-0.037869465 0.030177234 0.69750017
-0.033727497 0.030177232 0.69750017
-0.030768944 0.030177234 0.69750017
0.030768944 0.030177234 0.69750017
0.033727493 0.030177232 0.69750017
0.037869468 0.030177234 0.69750017
0.04201144 0.030177232 0.69750017
0.046153415 0.030177234 0.69750017
-0.045167234 0.034121972 0.69750017
-0.04201144 0.033727497 0.69750017
-0.037869468 0.033727493 0.69750017
-0.033727497 0.033727497 0.69750017
-0.030186424 0.033737812 0.6977213
0.030528279 0.033912119 0.69781113
0.033727497 0.033727493 0.69750017
0.037869468 0.033727497 0.69750017
0.04201144 0.033727497 0.69750017
0.046153415 0.033727497 0.69750017
0.049111966 0.034910917 0.69750017
-0.049900919 0.038855653 0.69750023
-0.046153419 0.037869468 0.69750023
-0.04201144 0.037869468 0.69750017
-0.037869468 0.037869468 0.69750017
-0.033727497 0.037869468 0.69750017
-0.030177234 0.037869468 0.69750017
-0.027547672 0.038804412 0.69835353
0.0275383 0.038788885 0.69809616
0.030177234 0.037869468 0.69750023
0.033727497 0.037869468 0.69750017
0.037869468 0.037869468 0.69750023
0.04201144 0.037869472 0.69750023
0.046153419 0.037869472 0.69750023
0.049506441 0.038263943 0.69750023
-0.052662235 0.040828023 0.69750023
-0.050147459 0.041863516 0.69750023
-0.046153415 0.042011444 0.69750023
-0.042011444 0.042011444 0.69750023
-0.037869472 0.042011444 0.69750023
-0.033727497 0.04201144 0.69750023
-0.030177232 0.04201144 0.69750023
-0.026495481 0.042274423 0.69750023
0.0267749 0.042159371 0.69750023
0.030177236 0.042011444 0.69750023
0.033727497 0.042011444 0.69750023
0.037869472 0.042011444 0.69750023
0.042011444 0.042011444 0.69750023
0.046153415 0.042011444 0.69750023
0.050295386 0.042011444 0.69750023
-0.04911197 0.044378288 0.69750023
-0.045834806 0.045834806 0.69750023
-0.042011444 0.046153415 0.69750023
-0.037869472 0.046153415 0.69750023
-0.033727497 0.046153415 0.69750023
-0.030177236 0.046153415 0.69750023
-0.026035262 0.046153419 0.69750023
-0.022409841 0.046763152 0.69778353
0.022288911 0.047141869 0.69753486
0.026035262 0.046153415 0.69750023
0.030177236 0.046153415 0.69750023
0.033727497 0.046153415 0.69750023
0.037869472 0.046153419 0.69750023
0.042011444 0.046153415 0.69750023
0.046153419 0.046153419 0.69750023
0.050295394 0.046153415 0.69750023
0.052898921 0.046508443 0.69750023
-0.044378292 0.049111973 0.69750029
-0.041842382 0.049957275 0.69750029
-0.037869472 0.050295394 0.69750029
-0.033727501 0.050295394 0.69750023
-0.030177236 0.050295394 0.69750023
-0.026035262 0.050295394 0.69750023
-0.021893289 0.050295394 0.69750023
-0.018512085 0.050633509 0.69750023
-0.01538845 0.051492654 0.69768775
0.015976185 0.051478818 0.69750029
0.018497054 0.050459661 0.69773221
0.021893291 0.050295394 0.69750029
0.026035264 0.050295398 0.69750023
0.030177239 0.050295394 0.69750029
0.033727501 0.050295398 0.69750029
0.037869472 0.050295394 0.69750023
0.042011444 0.050295386 0.69750023
0.046153415 0.050295394 0.69750023
0.050295386 0.050295386 0.69750023
0.053845651 0.05029539 0.69750023
0.056606967 0.05108434 0.69750023
-0.037409253 0.053582683 0.69750029
-0.033727501 0.053845659 0.69750029
-0.030177239 0.053845663 0.69750029
-0.026035264 0.053845659 0.69750029
-0.021893291 0.053845663 0.69750029
-0.018343028 0.053845663 0.69750029
-0.014362428 0.053953242 0.69750029
-0.010354934 0.054733224 0.69750029
-0.0059194202 0.055059839 0.6978901
0.0065106279 0.055047806 0.69773763
0.010296537 0.054559849 0.69755381
0.014365857 0.0539665 0.69767594
0.01834303 0.053845663 0.69750029
0.021893291 0.053845659 0.69750029
0.026035264 0.053845659 0.69750029
0.030177239 0.053845663 0.69750029
0.033727501 0.053845663 0.69750029
0.037869472 0.05384567 0.69750029
0.042011444 0.053845663 0.69750029
0.046153415 0.053845663 0.69750029
0.050295394 0.053845659 0.69750029
0.053845659 0.053845659 0.69750029
0.057632606 0.053963996 0.69750023
-0.036094345 0.056212507 0.69750035
-0.033464517 0.057527415 0.69750029
-0.030177237 0.057987634 0.69750029
-0.026035264 0.057987642 0.69750029
-0.021893291 0.057987634 0.69750029
-0.01834303 0.057987642 0.69750029
-0.014201056 0.057987634 0.69750029
-0.01005908 0.05798763 0.69750029
-0.0059171054 0.057987627 0.69750029
-0.0017751316 0.05798763 0.69750029
0.0017751316 0.057987642 0.69750029
0.0059171054 0.057987634 0.69750029
0.01005908 0.05798763 0.69750029
0.014201056 0.05798763 0.69750029
0.01834303 0.05798763 0.69750029
0.021893293 0.057987642 0.69750029
0.026035264 0.057987634 0.69750029
0.030177237 0.057987642 0.69750029
0.033727501 0.057987634 0.69750029
0.037869472 0.05798763 0.69750029
0.042011444 0.057987634 0.69750029
0.046153419 0.057987634 0.69750029
0.050295394 0.057987634 0.69750029
0.053845659 0.057987634 0.69750029
0.05798763 0.057987638 0.69750029
0.061866626 0.058447856 0.69750029
0.06449645 0.059762765 0.69750029
-0.029881384 0.061242048 0.69750035
-0.026035266 0.062129606 0.69750029
-0.021893293 0.062129609 0.69750029
-0.01834303 0.062129609 0.69750029
-0.014201056 0.062129613 0.69750029
-0.010059081 0.062129609 0.69750029
-0.0059171063 0.062129606 0.69750029
-0.0017751317 0.062129609 0.69750029
0.0017751317 0.062129609 0.69750029
0.0059171063 0.062129606 0.69750029
0.010059081 0.062129609 0.69750029
0.014201055 0.062129613 0.69750029
0.01834303 0.062129609 0.69750029
0.021893293 0.062129609 0.69750029
0.026035264 0.062129606 0.69750029
0.030177239 0.062129609 0.69750029
0.033727501 0.062129609 0.69750029
0.037869476 0.062129602 0.69750029
0.042011451 0.062129609 0.69750029
0.046153426 0.062129606 0.69750029
0.050295401 0.062129609 0.69750029
0.053845666 0.062129609 0.69750029
0.057987642 0.062129613 0.69750029
0.062129609 0.062129609 0.69750029
0.065531954 0.062277541 0.69750029
0.068046719 0.06331303 0.69750035
-0.025049081 0.065285407 0.69750029
-0.021893293 0.065679878 0.69750035
-0.01834303 0.065679878 0.69750029
-0.014201056 0.065679878 0.69750029
-0.010059081 0.065679878 0.69750029
-0.0059171063 0.065679878 0.69750029
-0.0017751317 0.065679878 0.69750029
0.0017751317 0.065679878 0.69750029
0.0059171058 0.065679878 0.69750029
0.01005908 0.065679878 0.69750029
0.014201055 0.065679878 0.69750029
0.01834303 0.065679878 0.69750029
0.021893293 0.065679878 0.69750029
0.026035264 0.065679885 0.69750029
0.030177239 0.065679878 0.69750029
0.033727501 0.065679878 0.69750029
0.037869472 0.065679878 0.69750029
0.042011447 0.065679878 0.69750029
0.046153426 0.065679878 0.69750029
0.050295401 0.065679878 0.69750029
0.053845666 0.065679878 0.69750029
0.057987642 0.065679885 0.69750029
0.062129609 0.065679878 0.69750029
0.065679878 0.065679878 0.69750029
0.069361635 0.065942854 0.69750029
-0.02149882 0.068835668 0.69750041
-0.018235447 0.069660477 0.69750029
-0.014201058 0.069821864 0.69750029
-0.010059081 0.069821857 0.69750029
-0.0059171058 0.069821849 0.69750029
-0.0017751317 0.069821857 0.69750029
0.0017751317 0.069821842 0.69750029
0.0059171068 0.069821857 0.69750029
0.010059081 0.069821857 0.69750029
0.014201058 0.069821857 0.69750029
0.018343031 0.069821857 0.69750029
0.021893293 0.069821842 0.69750029
0.026035264 0.069821857 0.69750029
0.030177237 0.069821842 0.69750029
0.033727501 0.069821857 0.69750029
0.03786948 0.069821864 0.69750029
0.042011455 0.069821842 0.69750029
0.046153434 0.069821864 0.69750029
0.050295409 0.069821857 0.69750029
0.05384567 0.069821857 0.69750029
0.057987638 0.069821849 0.69750029
0.062129617 0.069821857 0.69750029
0.065679885 0.069821857 0.69750029
0.069821849 0.069821857 0.69750029
0.073700838 0.070282072 0.69750035
0.076330669 0.071596988 0.69750041
-0.017159609 0.072780408 0.69750041
-0.01403968 0.073856242 0.69750029
-0.010059081 0.073963836 0.69750035
-0.0059171058 0.073963828 0.69750029
-0.0019230593 0.073815905 0.69750035
0.0017751319 0.073372118 0.69750041
0.0055620796 0.073017091 0.69750041
0.0094673708 0.072780408 0.69750041
0.014792766 0.072780408 0.69750041
0.018579716 0.073253773 0.69750041
0.022062356 0.073625706 0.69750035
0.026035266 0.073963836 0.69750029
0.030177239 0.073963836 0.69750035
0.033727508 0.073963836 0.69750035
0.03786948 0.073963836 0.69750029
0.042011455 0.073963836 0.69750035
0.04615343 0.073963836 0.69750029
0.050295409 0.073963828 0.69750035
0.05384567 0.073963836 0.69750035
0.057987642 0.073963836 0.69750029
0.062129617 0.073963828 0.69750035
0.065679878 0.073963836 0.69750035
0.069821857 0.073963836 0.69750029
0.073963828 0.073963836 0.69750035
0.077645585 0.074226819 0.69750035
-0.012820399 0.076725148 0.69750047
-0.0099514984 0.077944435 0.69750041
-0.0063608894 0.077070318 0.69750035
-0.0029585531 0.076330669 0.69750041
0.0278104 0.076330669 0.69750041
0.030571714 0.077119619 0.69750041
0.033835087 0.077944428 0.69750029
0.037869476 0.078105815 0.69750029
0.042011458 0.0781058 0.69750041
0.04615343 0.0781058 0.69750029
0.050295401 0.0781058 0.69750041
0.053845674 0.078105815 0.69750041
0.057987645 0.0781058 0.69750035
0.062129628 0.078105807 0.69750041
0.065679878 0.0781058 0.69750029
0.069821864 0.078105807 0.69750029
0.073963836 0.078105807 0.69750041
0.078105807 0.078105807 0.69750029
0.081803992 0.078549594 0.69750035
0.034910928 0.081064358 0.69750041
0.038106166 0.082011096 0.69750041
0.042011458 0.082247786 0.69750047
0.046153437 0.082247779 0.69750041
0.050295409 0.082247786 0.69750047
0.053845674 0.082247779 0.69750047
0.057987649 0.082247786 0.69750041
0.062129624 0.082247779 0.69750047
0.065679885 0.082247779 0.69750047
0.069821857 0.082247786 0.69750041
0.073963843 0.082247779 0.69750047
0.078105807 0.082247779 0.69750041
0.082247786 0.082247779 0.69750047
0.085403569 0.082642265 0.69750047
0.039644618 0.084614627 0.69750047
0.04218052 0.085459925 0.69750053
0.046153437 0.085798047 0.69750041
0.050295409 0.085798055 0.69750047
0.053845674 0.08579804 0.69750047
0.057987649 0.085798047 0.69750041
0.062129624 0.085798055 0.69750047
0.065679878 0.085798055 0.69750047
0.069821864 0.085798047 0.69750041
0.073963843 0.085798055 0.69750047
0.078105815 0.085798047 0.69750041
0.082247779 0.085798047 0.69750047
0.085798047 0.085798055 0.69750047
0.088953845 0.086192518 0.69750047
0.04659722 0.088904545 0.69750047
0.050295413 0.089940034 0.69750053
0.053845678 0.089940034 0.69750047
0.057987653 0.089940026 0.69750047
0.062129628 0.089940041 0.69750065
0.065679893 0.089940034 0.69750065
0.069821864 0.089940041 0.69750053
0.073963843 0.089940034 0.69750053
0.078105815 0.089940034 0.69750041
0.082247786 0.089940034 0.69750053
0.085798055 0.089940041 0.69750053
0.089940041 0.089940041 0.69750041
0.093687534 0.090926208 0.69750053
0.050887123 0.092898585 0.69750053
0.053993605 0.093934081 0.69750059
0.057987649 0.094082005 0.69750065
0.062129624 0.094082005 0.69750059
0.065679885 0.094082013 0.69750059
0.069821864 0.094082005 0.69750065
0.073963843 0.094082013 0.69750059
0.078105815 0.094082005 0.69750065
0.082247786 0.094082013 0.69750059
0.085798055 0.094082005 0.69750059
0.089940041 0.094082005 0.69750065
0.094082013 0.094082013 0.69750059
0.097237796 0.094476484 0.69750053
0.055029098 0.096448854 0.69750053
0.058364198 0.097632281 0.69750065
0.062129632 0.098223992 0.69750065
0.065679893 0.098223984 0.69750065
0.069821864 0.098223977 0.69750053
0.073963843 0.098223977 0.69750065
0.078105822 0.098223999 0.69750053
0.082247801 0.098223992 0.69750065
0.085798062 0.098223977 0.69750065
0.089940034 0.098223992 0.69750053
0.09408202 0.098223984 0.69750065
0.098223999 0.098223992 0.69750053
0.10197148 0.099210173 0.69750065
0.062425487 0.10147841 0.69750059
0.0656799 0.10236596 0.69750065
0.069821872 0.10236596 0.69750065
0.073963851 0.10236596 0.69750065
0.07810583 0.10236598 0.69750065
0.082247801 0.10236596 0.69750065
0.085798062 0.10236596 0.69750065
0.089940041 0.10236595 0.69750065
0.09408202 0.10236596 0.69750065
0.098223992 0.10236597 0.69750065
0.10236597 0.10236596 0.69750065
0.10552176 0.10276044 0.69750065
0.066271611 0.10473281 0.69750059
0.069983251 0.10580865 0.69750065
0.073963851 0.10591623 0.69750065
0.07810583 0.10591622 0.69750065
0.082247801 0.10591624 0.69750065
0.085798062 0.10591623 0.69750065
0.089940034 0.10591624 0.69750065
0.09408202 0.10591624 0.69750065
0.098223992 0.10591624 0.69750065
0.10236596 0.10591623 0.69750065
0.10591622 0.10591623 0.69750065
0.10907202 0.1063107 0.69750065
0.071005292 0.10828307 0.69750059
0.074226834 0.109598 0.69750065
0.07810583 0.11005822 0.69750053
0.082247816 0.11005822 0.69750065
0.085798077 0.11005822 0.69750065
0.089940041 0.11005822 0.69750053
0.094082035 0.11005822 0.69750065
0.098223999 0.11005821 0.69750053
0.10236597 0.11005822 0.69750065
0.10591624 0.11005822 0.69750065
0.11005822 0.11005822 0.69750053
0.11380572 0.11104441 0.69750065
0.079092011 0.11380571 0.69750065
0.082247816 0.1142002 0.69750065
0.08579807 0.1142002 0.69750065
0.089940041 0.11420018 0.69750065
0.094082028 0.11420018 0.69750065
0.098224007 0.1142002 0.69750065
0.10236599 0.11420018 0.69750065
0.10591624 0.11420018 0.69750065
0.11005821 0.1142002 0.69750065
0.1142002 0.11420018 0.69750065
0.11735598 0.11459467 0.69750065
0.083036758 0.11696151 0.69750065
0.08579807 0.11775046 0.69750071
0.089940049 0.11775044 0.69750071
0.094082028 0.11775046 0.69750065
0.098224007 0.11775046 0.69750065
0.10236599 0.11775047 0.69750065
0.10591624 0.11775046 0.69750071
0.11005821 0.11775044 0.69750071
0.1142002 0.11775047 0.69750071
0.11775046 0.11775046 0.69750071
0.12090626 0.11814494 0.69750071
0.086389787 0.12011731 0.69750071
0.090258665 0.12157384 0.69750065
0.094082035 0.12189245 0.69750071
0.098224014 0.12189245 0.69750059
0.10236599 0.12189243 0.69750071
0.10591624 0.12189244 0.69750071
0.11005823 0.12189247 0.69750059
0.1142002 0.12189246 0.69750071
0.11775046 0.12189244 0.69750071
0.12189244 0.12189245 0.69750059
0.12563995 0.12287863 0.69750071
0.094476499 0.12563995 0.69750071
0.098224014 0.12603444 0.69750071
0.10236599 0.12603442 0.69750071
0.10591624 0.12603442 0.69750071
0.11005822 0.12603444 0.69750071
0.11420022 0.12603442 0.69750071
0.11775046 0.12603444 0.69750071
0.12189245 0.12603442 0.69750071
0.12603442 0.12603444 0.69750071
0.12919022 0.12642892 0.69750071
0.0986678 0.12914091 0.69750071
0.10236598 0.13017641 0.69750071
0.10591626 0.13017641 0.69750071
0.11005823 0.1301764 0.69750082
0.11420021 0.13017638 0.69750071
0.11775047 0.13017641 0.69750071
0.12189244 0.1301764 0.69750088
0.12603442 0.13017642 0.69750077
0.13017641 0.13017641 0.69750088
0.1339239 0.1311626 0.69750077
0.10315493 0.13352944 0.69750077
0.10606418 0.13417046 0.69750077
0.11005823 0.1343184 0.69750077
0.11420022 0.13431838 0.69750077
0.11775049 0.13431838 0.69750077
0.12189245 0.1343184 0.69750077
0.12603444 0.13431838 0.69750077
0.13017641 0.13431838 0.69750077
0.13431838 0.13431838 0.69750077
0.13747418 0.13471286 0.69750077
0.10709968 0.13668522 0.69750077
0.11021962 0.13776106 0.69750077
0.11420022 0.13786866 0.69750077
0.11775049 0.13786866 0.69750077
0.12189245 0.13786866 0.69750077
0.12603442 0.13786864 0.69750077
0.13017641 0.13786866 0.69750077
0.1343184 0.13786864 0.69750077
0.13786866 0.13786867 0.69750077
0.14160608 0.13835037 0.69769269
0.14621687 0.13911273 0.69780499
0.11183338 0.1402355 0.69750082
0.1144632 0.14155041 0.69750077
0.11775047 0.14201063 0.69750077
0.12189246 0.14201063 0.69750088
0.12603444 0.14201063 0.69750077
0.13017642 0.14201061 0.69750088
0.1343184 0.14201064 0.69750077
0.13786866 0.14201064 0.69750077
0.14201063 0.14201061 0.69750088
0.1461526 0.14201063 0.69750077
0.14970289 0.14201064 0.69750077
0.15360385 0.14255412 0.69775027
0.15732479 0.14350671 0.69806528
0.11804634 0.14526504 0.69750082
0.12189247 0.1461526 0.69750077
0.12603444 0.14615262 0.69750077
0.13017642 0.1461526 0.69750077
0.1343184 0.14615262 0.69750077
0.13786866 0.14615262 0.69750077
0.14201063 0.1461526 0.69750077
0.14615262 0.14615262 0.69750077
0.14970286 0.1461526 0.69750077
0.15384486 0.1461526 0.69750077
0.15814677 0.14595351 0.69768304
0.16064952 0.14644846 0.69750082
0.12272086 0.14899282 0.69750082
0.12603444 0.14970288 0.69750077
0.13017641 0.14970289 0.69750077
0.13431841 0.14970288 0.69750082
0.13786867 0.14970289 0.69750082
0.14141893 0.1491957 0.69750077
0.15473244 0.14881532 0.69750082
0.15798686 0.14970289 0.69750082
0.1617738 0.14982124 0.69750082
0.12682341 0.15246421 0.69750088
0.13017642 0.15384486 0.69750088
0.13431841 0.15384488 0.69750077
0.13763198 0.15360819 0.69750082
0.15848278 0.15345207 0.69773102
0.16212882 0.15384488 0.69750088
0.16508739 0.15384486 0.69750088
0.13076815 0.15798685 0.69750082
0.13431841 0.15798685 0.69750082
0.13727696 0.15798685 0.69750088
0.15890589 0.15748349 0.69842356
0.16212882 0.15798685 0.69750088
0.1650874 0.15798686 0.69750094
0.13146348 0.161899 0.69760275
0.13431843 0.16212884 0.697501
0.13763198 0.16236553 0.697501
0.15832442 0.16246912 0.6979481
0.16212882 0.16212884 0.69750106
0.1650874 0.16153713 0.69750094
0.13446634 0.16612291 0.69750094
0.13786869 0.16627082 0.69750094
0.14161672 0.16677271 0.69774473
0.1453933 0.16794409 0.69954133
0.15441023 0.16684616 0.69805288
0.15798686 0.16627082 0.69750094
0.16177382 0.16615249 0.697501
0.13550185 0.16922939 0.697501
0.13786869 0.1698211 0.69750106
0.14201067 0.1698211 0.697501
0.14615266 0.1698211 0.69750106
0.14970292 0.16982108 0.69750106
0.15384491 0.1698211 0.697501
0.15798688 0.1698211 0.697501
0.16082709 0.16958442 0.697501
0.13846041 0.17218794 0.697501
0.14224735 0.17313468 0.69750106
0.14615266 0.17337136 0.69750106
0.14970292 0.17337137 0.69750106
0.15368353 0.17326377 0.69750112
0.15739517 0.17218794 0.697501
0.020833032 0.0029761475 0.70164835
-0.024374276 0.0077284295 0.70078206
0.024418831 0.0077425563 0.70206302
-0.029104488 0.017225105 0.70016271
-0.030292213 0.027916353 0.70015776
0.030411577 0.025641134 0.70291668
0.029228218 0.034000173 0.70313925
-0.025653088 0.041164257 0.70324439
0.025020674 0.04229214 0.70220292
-0.022070659 0.045930833 0.70315111
-0.017275348 0.050046198 0.70229185
0.014903457 0.051864028 0.70271963
0.019670313 0.048281677 0.70263928
-0.01247708 0.052879054 0.70037198
-0.010136644 0.054260865 0.70287871
-0.0023820302 0.055403206 0.70224237
0.0041687228 0.055384457 0.70200473
0.0089272633 0.054158732 0.70155573
0.14522627 0.1386784 0.70159739
0.1491244 0.13961846 0.70034182
0.15072881 0.14000501 0.70228082
0.15631697 0.15156208 0.7006247
0.12832721 0.15578327 0.70358306
0.12893324 0.15745303 0.70039046
0.15865003 0.15924436 0.70042872
0.13030863 0.16124949 0.70139736
0.15750466 0.16266906 0.70238858
0.13305219 0.1664644 0.70331883
0.14270133 0.1665844 0.70382583
0.14510755 0.16779926 0.70391273
0.15411749 0.16651404 0.70252275
0.15644278 0.16477053 0.70118862
0.13519168 0.16973406 0.70203573
0.14691012 0.16832213 0.70111597
0.14974463 0.16816621 0.70046651
0.0054028234 -0.0042021959 0.7076416
-0.013752824 -0.0017938466 0.70485395
-0.010176498 -0.0029930877 0.70564216
-0.018521832 0.0017924354 0.70429945
0.028133355 0.013767387 0.70560032
-0.029288778 0.018529635 0.70459616
0.02937164 0.018582057 0.70658952
0.03061364 0.02341043 0.70758706
-0.030472336 0.026887355 0.70432103
0.030563517 0.02457067 0.70642853
-0.029316729 0.031709932 0.70526856
0.029373582 0.032970347 0.70663625
-0.028092436 0.036460396 0.70457405
0.026980042 0.038971175 0.70674902
-0.024588836 0.042580668 0.70695084
-0.020988058 0.047373045 0.7068696
0.022185182 0.046164922 0.70675588
-0.019785676 0.04856484 0.70676011
0.016171711 0.050910939 0.70603669
-0.013776792 0.052112214 0.70608234
-0.0089783426 0.054468613 0.70556986
-0.0078050196 0.054635137 0.70772696
-0.0005984545 0.055656269 0.70545
0.0017971022 0.05575664 0.7067222
0.0077791819 0.054454271 0.70538408
0.012558277 0.053223174 0.70492977
0.14293732 0.13815281 0.70498979
0.14606053 0.138879 0.70564562
0.149233 0.13964373 0.70648122
0.15381524 0.14124662 0.70550644
0.15745589 0.1430873 0.70572948
0.15988091 0.14431198 0.705863
0.15625337 0.15146399 0.70570624
0.15840302 0.15481654 0.70461631
0.12940657 0.15876164 0.70622373
0.15858018 0.15798244 0.7054044
0.13109481 0.16341956 0.70562911
0.15776549 0.16215372 0.70533067
0.15400392 0.16658789 0.70637435
0.15642101 0.1648114 0.7064634
0.14733601 0.16829857 0.70600736
0.15019003 0.16814137 0.70534778
-0.025847306 0.010218702 0.70856863
-0.011421895 0.053502556 0.70863014
0.011424553 0.05351501 0.70879507
0.14610411 0.13888909 0.70874703
0.1508518 0.14003375 0.70845437
0.13049546 0.16176626 0.70887679
0.15802911 0.16163434 0.70829868
0.14239745 0.16643077 0.70825386
0.14481822 0.16765262 0.70833915
0.15397559 0.16660616 0.70900059
0.15681738 0.16402738 0.70825356
