# .PCD v0.7 - Point Cloud Data file format
VERSION 0.7
FIELDS x y z
SIZE 4 4 4
TYPE F F F
COUNT 1 1 1
WIDTH 1337
HEIGHT 1
VIEWPOINT 0 0 0 1 0 0 0
POINTS 1337
DATA ascii
-0.024573524 0.061436631 0.65836096
-0.021764653 0.063061684 0.65784293
0.021767274 0.063069277 0.65792215
0.025128081 0.061423685 0.65823185
0.08729168 0.062723778 0.65820247
0.088691324 0.06080097 0.65753531
-0.084709346 0.065735623 0.65780306
-0.083337329 0.067676626 0.65930808
-0.020708192 0.064363301 0.65974414
-0.018025316 0.065226048 0.65715629
-0.015087633 0.06761495 0.65870726
0.013938252 0.066902682 0.65720057
0.018409975 0.06471315 0.65761268
0.085383587 0.065852515 0.65784436
-0.082452543 0.070178896 0.6576063
-0.010068294 0.06879577 0.65931308
-0.0061432514 0.068689026 0.65829015
-0.0022309464 0.068582624 0.65727043
0.0011135628 0.068491682 0.65639877
0.011171051 0.068694383 0.65834153
0.082516029 0.070232287 0.65811104
0.084078535 0.068487816 0.65636176
-0.080907486 0.073094182 0.65774226
-0.079862431 0.074835539 0.65832686
0.07946527 0.07499931 0.65812641
0.080666639 0.072842605 0.65881866
-0.07846342 0.077906206 0.65752906
0.077561647 0.078121006 0.65776843
-0.076772757 0.08123488 0.65738171
-0.075506479 0.082776889 0.65930367
0.074846476 0.082107827 0.65842128
0.07627438 0.08072836 0.65628612
-0.074110679 0.085842468 0.65850359
0.071441747 0.087629057 0.65793586
0.072921999 0.085207656 0.65819937
-0.072418489 0.089174293 0.65835571
-0.070929669 0.091037951 0.65836984
0.06996236 0.090049103 0.65767187
-0.069001719 0.092435814 0.65772313
-0.06587524 0.094345272 0.65807146
-0.063221946 0.095672145 0.65951473
0.067018777 0.09438502 0.65834391
0.068554461 0.092519984 0.65700048
-0.061907176 0.097043753 0.6574384
-0.058614731 0.098993339 0.65804464
0.059709072 0.09988714 0.65779662
0.061932374 0.098756313 0.6577037
0.065238148 0.097021304 0.65728569
-0.056370769 0.10046174 0.65791178
-0.053936332 0.10195241 0.65816796
-0.05141779 0.10339578 0.65881908
0.053723168 0.10286827 0.65830612
0.057485331 0.1010172 0.65789324
-0.049642973 0.10486405 0.65751457
-0.046142425 0.10698387 0.65797526
0.045985047 0.1068636 0.65838045
0.050121993 0.1048222 0.65795124
-0.044016346 0.10864794 0.6567831
-0.041657604 0.10978196 0.65824419
-0.039126612 0.11123323 0.65889549
0.038507249 0.11086998 0.65785331
0.041873515 0.10905611 0.65813321
-0.037375927 0.11268611 0.65759051
-0.034263857 0.11461981 0.65780723
-0.031878836 0.1157705 0.65926903
0.030255217 0.11510649 0.65803212
0.034030538 0.11324856 0.65761983
0.036256816 0.11211723 0.65752369
-0.030036196 0.11713241 0.65812397
-0.025685292 0.11781855 0.65821278
-0.02179148 0.11789828 0.65865815
-0.017853966 0.11828312 0.65769774
-0.013957909 0.1183631 0.65814251
-0.010421765 0.11853725 0.65807509
-0.0061365389 0.11882848 0.65762162
-0.0022327602 0.11890884 0.65806621
0.0022350266 0.11900079 0.65857512
0.0061367638 0.11938397 0.65761489
0.010048804 0.11946472 0.65805972
0.013735427 0.11960153 0.65819782
0.017850237 0.11992946 0.65754056
0.02220908 0.11930706 0.65780103
0.02579678 0.11737305 0.65822083
0.028407369 0.11641451 0.65659249
-0.02130606 -0.068966538 0.66094971
-0.01795635 -0.069018431 0.66144699
-0.014016529 -0.068960436 0.66089123
-0.010083636 -0.068902552 0.66033643
-0.029191907 -0.064559914 0.6617595
-0.025471974 -0.06569498 0.66189122
-0.021908095 -0.066286154 0.66218114
-0.01797729 -0.066291265 0.66223079
-0.014044761 -0.066291273 0.66223091
-0.010112227 -0.066291273 0.66223079
-0.0061796941 -0.066291265 0.66223091
-0.0022471615 -0.066291265 0.66223085
0.0022469657 -0.066287346 0.66219264
0.006178061 -0.066273794 0.66206074
0.010107423 -0.066259541 0.66192174
0.014035217 -0.066245295 0.66178304
0.01784366 -0.065885693 0.66206872
0.021909824 -0.065729469 0.66223085
0.025841668 -0.065727808 0.66221428
0.029621789 -0.065560751 0.66194981
0.032552794 -0.064545378 0.66161048
-0.036867227 -0.060446396 0.66180152
-0.03354869 -0.061122958 0.6621241
-0.029943807 -0.061918791 0.66214931
-0.025842354 -0.061796941 0.66223061
-0.021909824 -0.061796937 0.66223067
-0.017977288 -0.061796933 0.66223061
-0.014044759 -0.061796937 0.66223067
-0.010112226 -0.061796937 0.66223067
-0.0061796941 -0.061796933 0.66223079
-0.002247161 -0.06179693 0.66223073
0.0022471612 -0.061796941 0.66223067
0.0061796941 -0.061796937 0.66223073
0.010112225 -0.061796937 0.66223073
0.014044759 -0.061796945 0.66223079
0.01797729 -0.061796941 0.66223079
0.021909824 -0.061796945 0.66223079
0.025842354 -0.061796941 0.66223079
0.029774889 -0.061796933 0.66223079
0.033699963 -0.061783515 0.66209078
0.03775451 -0.060772445 0.66178405
-0.044878252 -0.05665965 0.66128337
-0.041944809 -0.057503287 0.66177613
-0.038238633 -0.058027461 0.66212273
-0.033707418 -0.057864398 0.66223061
-0.029774884 -0.057864401 0.66223067
-0.025842354 -0.057864398 0.66223061
-0.02190982 -0.057864401 0.66223067
-0.017977288 -0.057864398 0.66223067
-0.014044757 -0.057864401 0.66223073
-0.010112225 -0.057864398 0.66223067
-0.0061796932 -0.057864401 0.66223073
-0.0022471612 -0.057864398 0.66223067
0.0022471612 -0.057864398 0.66223067
0.0061796936 -0.057864401 0.66223073
0.010112225 -0.057864401 0.66223067
0.014044757 -0.057864401 0.66223073
0.017977288 -0.057864401 0.66223067
0.02190982 -0.057864394 0.66223073
0.025842354 -0.057864398 0.66223067
0.029774887 -0.057864401 0.66223073
0.033707421 -0.057864398 0.66223067
0.038201738 -0.057864398 0.66223067
0.041977063 -0.057700753 0.66196895
0.044897433 -0.056683719 0.66156435
-0.052990265 -0.052429721 0.66100395
-0.049831975 -0.053200427 0.66187459
-0.04605725 -0.053920705 0.66209781
-0.042134266 -0.053931873 0.66223055
-0.038201738 -0.053931862 0.66223055
-0.033707418 -0.053931866 0.66223061
-0.02977488 -0.053931862 0.66223055
-0.025842352 -0.053931862 0.66223055
-0.021909818 -0.053931862 0.66223055
-0.017977286 -0.053931862 0.66223055
-0.014044757 -0.053931862 0.66223055
-0.010112225 -0.053931858 0.66223055
-0.0061796927 -0.053931862 0.66223055
-0.002247161 -0.05393187 0.66223061
0.002247161 -0.053931866 0.66223061
0.0061796927 -0.053931862 0.66223055
0.010112223 -0.053931858 0.66223055
0.014044755 -0.053931858 0.66223055
0.017977288 -0.053931866 0.66223061
0.02190982 -0.053931862 0.66223061
0.025842352 -0.053931862 0.66223055
0.029774882 -0.053931862 0.66223055
0.033707414 -0.053931866 0.66223055
0.038201738 -0.053931858 0.66223061
0.04213427 -0.053931858 0.66223061
0.046055906 -0.053919148 0.66207916
0.049805857 -0.053013805 0.66179669
0.052179135 -0.052179135 0.66137689
-0.060024958 -0.048805341 0.66127664
-0.057625014 -0.04931251 0.66206276
-0.053926792 -0.049994674 0.66217023
-0.049999326 -0.049999326 0.66223055
-0.046066791 -0.049999323 0.66223055
-0.042134263 -0.049999326 0.66223055
-0.038201731 -0.049999326 0.66223055
-0.033707406 -0.049999323 0.66223055
-0.029774878 -0.049999326 0.66223055
-0.025842348 -0.049999323 0.66223055
-0.021909818 -0.049999326 0.66223055
-0.017977284 -0.049999323 0.66223055
-0.014044753 -0.049999326 0.66223055
-0.010112223 -0.049999326 0.66223055
-0.0061796922 -0.049999323 0.66223055
-0.0022471605 -0.049999326 0.66223055
0.0022471608 -0.04999933 0.66223055
0.0061796922 -0.04999933 0.66223055
0.010112223 -0.04999933 0.66223055
0.014044755 -0.04999933 0.66223055
0.017977286 -0.049999326 0.66223055
0.021909816 -0.04999933 0.66223055
0.025842348 -0.049999326 0.66223055
0.029774882 -0.049999326 0.66223055
0.033707414 -0.04999933 0.66223055
0.038201734 -0.049999326 0.66223055
0.042134263 -0.04999933 0.66223055
0.046066802 -0.049999326 0.66223055
0.04999933 -0.04999933 0.66223055
0.053761505 -0.049881294 0.66202348
0.057240345 -0.048823163 0.6615181
-0.06527961 -0.045078814 0.66147465
-0.06167784 -0.045949291 0.6621592
-0.057864383 -0.046066787 0.66223049
-0.053931855 -0.046066783 0.66223049
-0.049999323 -0.046066787 0.66223049
-0.046066787 -0.046066791 0.66223049
-0.042134255 -0.046066787 0.66223049
-0.038201727 -0.046066795 0.66223049
-0.033707406 -0.046066795 0.66223049
-0.029774874 -0.046066791 0.66223049
-0.025842348 -0.046066783 0.66223049
-0.021909816 -0.046066791 0.66223049
-0.017977282 -0.046066791 0.66223049
-0.014044751 -0.046066795 0.66223049
-0.010112222 -0.046066787 0.66223049
-0.0061796918 -0.046066791 0.66223049
-0.0022471605 -0.046066798 0.66223049
0.0022471601 -0.046066787 0.66223049
0.0061796918 -0.046066791 0.66223049
0.010112222 -0.046066783 0.66223049
0.014044754 -0.046066795 0.66223049
0.017977284 -0.046066791 0.66223049
0.021909816 -0.046066795 0.66223049
0.02584235 -0.046066791 0.66223049
0.029774876 -0.046066795 0.66223055
0.033707406 -0.046066795 0.66223055
0.038201731 -0.046066791 0.66223055
0.042134259 -0.046066795 0.66223055
0.046066795 -0.046066798 0.66223055
0.049999323 -0.046066791 0.66223055
0.053931855 -0.046066791 0.66223055
0.057861615 -0.046064544 0.66219938
0.06154085 -0.045257311 0.66189903
0.064513572 -0.04431802 0.66128451
-0.066121399 -0.042021714 0.66206795
-0.061796907 -0.042134255 0.66223043
-0.057864375 -0.042134255 0.66223043
-0.053931847 -0.042134255 0.66223043
-0.049999315 -0.042134255 0.66223043
-0.04606678 -0.042134255 0.66223043
-0.042134255 -0.042134255 0.66223043
-0.038201727 -0.042134255 0.66223043
-0.033707403 -0.042134255 0.66223043
-0.029774874 -0.042134255 0.66223049
-0.025842344 -0.042134255 0.66223049
-0.021909812 -0.042134255 0.66223043
-0.017977282 -0.042134255 0.66223049
-0.014044751 -0.042134255 0.66223043
-0.010112221 -0.042134255 0.66223049
-0.0061796908 -0.042134255 0.66223049
-0.0022471603 -0.042134255 0.66223049
0.0022471605 -0.042134255 0.66223049
0.0061796913 -0.042134255 0.66223049
0.010112222 -0.042134259 0.66223049
0.014044751 -0.042134259 0.66223049
0.017977282 -0.042134255 0.66223049
0.021909812 -0.042134259 0.66223049
0.025842346 -0.042134255 0.66223049
0.029774874 -0.042134255 0.66223049
0.033707406 -0.042134255 0.66223049
0.038201731 -0.042134259 0.66223049
0.042134259 -0.042134255 0.66223049
0.04606678 -0.042134255 0.66223049
0.049999323 -0.042134259 0.66223049
0.053931851 -0.042134255 0.66223049
0.057864383 -0.042134263 0.66223049
0.061796915 -0.042134255 0.66223049
0.066115312 -0.042017601 0.66200662
0.069581538 -0.040963702 0.66147196
-0.069761224 -0.037757903 0.66184247
-0.066291213 -0.038201716 0.66223043
-0.061796904 -0.038201723 0.66223043
-0.057864372 -0.03820172 0.66223043
-0.05393184 -0.03820172 0.66223043
-0.049999312 -0.038201723 0.66223043
-0.04606678 -0.03820172 0.66223043
-0.042134251 -0.038201727 0.66223043
-0.038201723 -0.03820172 0.66223043
-0.033707399 -0.03820172 0.66223043
-0.029774873 -0.038201723 0.66223043
-0.025842344 -0.038201723 0.66223043
-0.021909811 -0.038201723 0.66223043
-0.017977282 -0.038201723 0.66223043
-0.01404475 -0.03820172 0.66223043
-0.010112221 -0.038201723 0.66223043
-0.0061796904 -0.038201723 0.66223043
-0.0022471603 -0.03820172 0.66223043
0.0022471601 -0.038201716 0.66223043
0.0061796904 -0.038201723 0.66223043
0.010112221 -0.038201723 0.66223043
0.01404475 -0.038201723 0.66223043
0.017977282 -0.038201723 0.66223043
0.021909812 -0.038201727 0.66223043
0.025842346 -0.038201727 0.66223043
0.029774874 -0.038201731 0.66223043
0.033707399 -0.038201727 0.66223043
0.038201731 -0.038201727 0.66223049
0.042134255 -0.038201727 0.66223049
0.046066783 -0.038201723 0.66223043
0.049999315 -0.038201731 0.66223049
0.053931847 -0.038201727 0.66223049
0.057864379 -0.038201731 0.66223049
0.061796911 -0.038201731 0.66223049
0.066291235 -0.038201723 0.66223049
0.070217155 -0.038198035 0.66216916
0.072619304 -0.037290618 0.66102755
-0.072790124 -0.033306643 0.66172773
-0.070223741 -0.033707395 0.66223031
-0.066291213 -0.033707395 0.66223037
-0.061796892 -0.033707399 0.66223037
-0.057864357 -0.033707395 0.66223037
-0.05393184 -0.033707395 0.66223037
-0.049999308 -0.033707399 0.66223037
-0.046066776 -0.033707395 0.66223037
-0.042134251 -0.033707395 0.66223037
-0.038201716 -0.033707395 0.66223037
-0.033707395 -0.033707395 0.66223037
-0.029774869 -0.033707399 0.66223037
-0.025842341 -0.033707399 0.66223043
-0.021909805 -0.033707395 0.66223043
-0.017977279 -0.033707395 0.66223037
-0.014044748 -0.033707395 0.66223043
-0.010112219 -0.033707399 0.66223037
-0.0061796899 -0.033707395 0.66223037
-0.0022471598 -0.033707399 0.66223037
0.0022471598 -0.033707395 0.66223037
0.0061796899 -0.033707399 0.66223043
0.01011222 -0.033707399 0.66223037
0.014044748 -0.033707395 0.66223043
0.017977281 -0.033707399 0.66223043
0.021909809 -0.033707399 0.66223043
0.025842341 -0.033707399 0.66223043
0.029774869 -0.033707399 0.66223043
0.033707399 -0.033707395 0.66223043
0.038201723 -0.033707395 0.66223043
0.042134251 -0.033707399 0.66223043
0.04606678 -0.033707395 0.66223043
0.049999312 -0.033707399 0.66223043
0.05393184 -0.033707399 0.66223043
0.057864372 -0.033707399 0.66223043
0.061796904 -0.033707403 0.66223043
0.06629122 -0.033707403 0.66223043
0.070223756 -0.033707403 0.66223043
0.073463179 -0.033540752 0.66197115
-0.074027546 -0.029853955 0.66192085
-0.070223734 -0.029774865 0.66223019
-0.066291206 -0.029774865 0.66223025
-0.061796892 -0.029774865 0.66223031
-0.057864361 -0.029774865 0.66223025
-0.053931832 -0.029774867 0.66223031
-0.0499993 -0.029774865 0.66223025
-0.046066772 -0.029774869 0.66223031
-0.04213424 -0.029774865 0.66223025
-0.038201708 -0.029774867 0.66223031
-0.033707395 -0.029774869 0.66223031
-0.029774865 -0.029774867 0.66223025
-0.025842333 -0.029774867 0.66223031
-0.021909805 -0.029774865 0.66223025
-0.017977277 -0.029774869 0.66223031
-0.014044749 -0.029774867 0.66223025
-0.010112219 -0.029774869 0.66223031
-0.0061796894 -0.029774867 0.66223025
-0.0022471596 -0.029774867 0.66223031
0.0022471598 -0.029774869 0.66223031
0.0061796894 -0.029774867 0.66223031
0.010112219 -0.029774873 0.66223031
0.014044749 -0.029774867 0.66223025
0.017977281 -0.029774869 0.66223037
0.021909807 -0.029774865 0.66223025
0.025842339 -0.029774869 0.66223031
0.029774867 -0.029774871 0.66223031
0.033707399 -0.029774869 0.66223037
0.038201716 -0.029774869 0.66223037
0.042134248 -0.029774867 0.66223031
0.04606678 -0.029774873 0.66223037
0.0499993 -0.029774867 0.66223031
0.053931843 -0.029774873 0.66223037
0.057864368 -0.029774871 0.66223037
0.0617969 -0.029774869 0.66223037
0.06629122 -0.029774869 0.66223043
0.070223741 -0.029774867 0.66223037
0.074267276 -0.029939894 0.66206753
0.076854974 -0.029170584 0.6612817
-0.077625453 -0.025407016 0.66187441
-0.074156255 -0.025842328 0.66223019
-0.070223726 -0.025842329 0.66223007
-0.066291198 -0.025842328 0.66223013
-0.061796881 -0.025842328 0.66223013
-0.057864353 -0.025842331 0.66223013
-0.053931829 -0.025842328 0.66223019
-0.049999297 -0.025842329 0.66223013
-0.046066768 -0.025842329 0.66223019
-0.04213424 -0.025842333 0.66223019
-0.038201708 -0.025842328 0.66223019
-0.033707391 -0.025842331 0.66223019
-0.029774865 -0.025842331 0.66223013
-0.025842331 -0.025842331 0.66223019
-0.021909805 -0.025842331 0.66223013
-0.017977277 -0.025842329 0.66223025
-0.014044747 -0.025842329 0.66223013
-0.010112218 -0.025842331 0.66223025
-0.006179688 -0.025842331 0.66223019
-0.0022471596 -0.025842331 0.66223031
0.0022471594 -0.025842329 0.66223019
0.006179689 -0.025842331 0.66223013
0.010112219 -0.025842331 0.66223025
0.014044747 -0.025842333 0.66223019
0.017977277 -0.025842331 0.66223037
0.021909803 -0.025842333 0.66223031
0.025842333 -0.025842331 0.66223031
0.029774867 -0.025842333 0.66223031
0.033707395 -0.025842331 0.66223037
0.038201712 -0.025842331 0.66223037
0.042134244 -0.025842333 0.66223031
0.046066768 -0.025842331 0.66223037
0.0499993 -0.025842337 0.66223031
0.053931832 -0.025842333 0.66223037
0.057864357 -0.025842333 0.66223031
0.061796896 -0.025842335 0.66223037
0.066291213 -0.025842339 0.66223037
0.070223741 -0.025842337 0.66223031
0.074156269 -0.025842339 0.66223037
0.077826455 -0.025604963 0.66191328
-0.080532193 -0.021605607 0.66153586
-0.078088783 -0.021909801 0.66223007
-0.074156247 -0.021909801 0.66223007
-0.070223719 -0.021909801 0.66223007
-0.066291191 -0.021909803 0.66223007
-0.061796878 -0.021909803 0.66223007
-0.057864349 -0.021909801 0.66223007
-0.053931817 -0.021909803 0.66223007
-0.049999293 -0.021909803 0.66223007
-0.046066765 -0.021909803 0.66223007
-0.042134233 -0.021909801 0.66223007
-0.038201705 -0.021909803 0.66223007
-0.033707391 -0.021909803 0.66223007
-0.029774858 -0.021909801 0.66223007
-0.025842329 -0.021909803 0.66223007
-0.021909803 -0.021909803 0.66223007
-0.017977275 -0.021909803 0.66223007
-0.014044745 -0.021909803 0.66223007
-0.010112216 -0.021909803 0.66223007
-0.0061796885 -0.021909803 0.66223013
-0.0022471594 -0.021909803 0.66223007
0.0022471594 -0.021909805 0.66223007
0.0061796885 -0.021909805 0.66223019
0.010112217 -0.021909805 0.66223007
0.014044747 -0.021909805 0.66223019
0.017977275 -0.021909803 0.66223013
0.021909803 -0.021909803 0.66223013
0.025842331 -0.021909803 0.66223013
0.029774861 -0.021909805 0.66223019
0.033707395 -0.021909803 0.66223013
0.038201708 -0.021909803 0.66223013
0.04213424 -0.021909803 0.66223019
0.046066772 -0.021909803 0.66223013
0.049999297 -0.021909803 0.66223019
0.053931829 -0.021909805 0.66223013
0.057864361 -0.021909803 0.66223025
0.061796889 -0.021909805 0.66223019
0.066291206 -0.021909805 0.66223013
0.070223734 -0.021909805 0.66223019
0.074156262 -0.021909805 0.66223013
0.078088798 -0.021909805 0.66223025
0.080535792 -0.021606904 0.6615665
-0.081749611 -0.017809758 0.66198319
-0.078088775 -0.017977269 0.66223001
-0.07415624 -0.017977271 0.6622299
-0.070223711 -0.017977269 0.66223001
-0.066291183 -0.017977271 0.66223013
-0.06179687 -0.017977271 0.66223013
-0.057864342 -0.017977269 0.66223001
-0.053931817 -0.017977273 0.66223013
-0.049999293 -0.017977269 0.66223007
-0.046066757 -0.017977271 0.66223013
-0.042134229 -0.017977273 0.66223007
-0.038201701 -0.017977275 0.66223013
-0.033707388 -0.017977273 0.66223013
-0.029774854 -0.017977271 0.66223007
-0.025842326 -0.017977273 0.66223013
-0.021909803 -0.017977273 0.66223007
-0.018087674 -0.018087799 0.66215569
-0.014197131 -0.018849617 0.66184521
-0.011223086 -0.019639231 0.66144156
-0.0050391196 -0.019596577 0.66000503
-0.002240906 -0.019611714 0.66051489
0.0022445458 -0.019635981 0.66133213
0.0061781406 -0.019657023 0.66204089
0.010112217 -0.019662643 0.66223013
0.014323485 -0.019379115 0.66213608
0.018133247 -0.018213455 0.66205251
0.021909803 -0.017977273 0.66223007
0.025842329 -0.017977275 0.66223013
0.029774861 -0.017977273 0.66223007
0.033707391 -0.017977275 0.66223013
0.038201705 -0.017977273 0.66223013
0.042134229 -0.017977275 0.66223007
0.046066765 -0.017977275 0.66223019
0.049999293 -0.017977273 0.66223007
0.053931825 -0.017977275 0.66223013
0.057864349 -0.017977273 0.66223007
0.061796881 -0.017977273 0.66223019
0.066291198 -0.017977275 0.66223019
0.070223726 -0.017977273 0.66223007
0.074156255 -0.017977275 0.66223019
0.078088783 -0.017977277 0.66223007
0.081529975 -0.017691504 0.66204536
-0.085230276 -0.013811779 0.66184825
-0.082021289 -0.014044739 0.66222996
-0.07808876 -0.014044742 0.66222996
-0.074156232 -0.014044743 0.66222996
-0.070223711 -0.014044742 0.66222996
-0.066291183 -0.014044742 0.66222996
-0.061796863 -0.014044743 0.66223001
-0.057864334 -0.014044742 0.66223001
-0.053931814 -0.014044742 0.66223001
-0.049999282 -0.014044743 0.66223001
-0.046066757 -0.014044743 0.66223001
-0.042134225 -0.014044742 0.66223001
-0.038201701 -0.014044744 0.66223001
-0.033707384 -0.014044744 0.66223001
-0.029774854 -0.014044743 0.66223001
-0.025840329 -0.014043677 0.66217536
-0.022129156 -0.014715455 0.66206807
-0.019634029 -0.015146252 0.66126645
0.019600024 -0.015120018 0.66012114
0.022127751 -0.014714554 0.66202557
0.025842326 -0.014044746 0.66223007
0.029774858 -0.014044742 0.66223007
0.033707384 -0.014044744 0.66223007
0.038201705 -0.014044746 0.66223007
0.042134229 -0.014044743 0.66223007
0.046066761 -0.014044744 0.66223007
0.049999289 -0.014044745 0.66223007
0.053931817 -0.014044746 0.66223007
0.057864349 -0.014044743 0.66223007
0.06179687 -0.014044744 0.66223007
0.066291191 -0.014044746 0.66223007
0.070223719 -0.014044745 0.66223007
0.074156247 -0.014044744 0.66223007
0.078088783 -0.014044745 0.66223007
0.082021303 -0.014044744 0.66223007
0.084769785 -0.013472943 0.66175801
-0.088534497 -0.0087975031 0.66192597
-0.086102441 -0.010152398 0.66204745
-0.082021274 -0.010112212 0.66222984
-0.078088753 -0.010112212 0.66222996
-0.074156232 -0.010112213 0.6622299
-0.070223704 -0.010112213 0.66222996
-0.066291176 -0.010112213 0.6622299
-0.061796863 -0.010112213 0.6622299
-0.057864334 -0.010112214 0.66222996
-0.053931806 -0.010112213 0.6622299
-0.049999278 -0.010112212 0.66222996
-0.04606675 -0.010112213 0.6622299
-0.042134225 -0.010112214 0.66222996
-0.038201697 -0.010112213 0.6622299
-0.03370738 -0.010112213 0.6622299
-0.029931908 -0.010993822 0.66215229
-0.026955884 -0.011793106 0.66197866
0.026669513 -0.011509666 0.66182971
0.029877294 -0.010446148 0.66200531
0.033707384 -0.010112213 0.6622299
0.038201697 -0.010112214 0.6622299
0.042134225 -0.010112216 0.66223001
0.046066757 -0.010112215 0.6622299
0.049999282 -0.010112216 0.66223007
0.053931814 -0.010112214 0.66223001
0.057864342 -0.010112216 0.66223001
0.06179687 -0.010112215 0.66223001
0.066291183 -0.010112215 0.6622299
0.070223711 -0.010112215 0.66223001
0.074156255 -0.010112215 0.66223013
0.078088768 -0.010112216 0.66223001
0.082021296 -0.010112215 0.66223013
0.085909441 -0.0097499387 0.66189402
-0.089505389 -0.006064211 0.66191006
-0.085953802 -0.0061796852 0.66222984
-0.082021274 -0.0061796852 0.6622299
-0.078088745 -0.0061796848 0.66222984
-0.074156225 -0.0061796848 0.6622299
-0.070223689 -0.0061796852 0.66222984
-0.066291168 -0.0061796852 0.66222996
-0.061796848 -0.0061796852 0.6622299
-0.057864327 -0.0061796848 0.6622299
-0.053931799 -0.0061796852 0.66222996
-0.049999271 -0.0061796852 0.6622299
-0.04606675 -0.0061796862 0.66222996
-0.042134222 -0.0061796848 0.66222996
-0.038201697 -0.0061796852 0.66222996
-0.03440316 -0.0063189291 0.66210091
0.031925816 -0.0072813267 0.66024065
0.034636699 -0.0065529509 0.66209477
0.038201701 -0.0061796862 0.66222996
0.042134225 -0.0061796852 0.66222996
0.04606675 -0.0061796852 0.66223001
0.049999278 -0.0061796862 0.66223001
0.053931814 -0.0061796866 0.66223001
0.057864334 -0.0061796871 0.66222996
0.061796863 -0.0061796866 0.66222996
0.066291183 -0.0061796866 0.66222996
0.070223711 -0.0061796871 0.66223001
0.074156232 -0.0061796866 0.66223001
0.078088768 -0.0061796862 0.66223001
0.082021289 -0.0061796866 0.66222996
0.085953809 -0.0061796866 0.66222996
0.088565692 -0.0059490581 0.66160035
-0.092389494 -0.00055993634 0.66004527
-0.089886323 -0.0022471577 0.66222966
-0.085953794 -0.0022471577 0.66222972
-0.082021259 -0.0022471577 0.66222966
-0.078088738 -0.0022471577 0.66222972
-0.07415621 -0.0022471577 0.66222966
-0.070223689 -0.0022471582 0.66222978
-0.066291161 -0.002247158 0.66222972
-0.061796844 -0.002247158 0.66222966
-0.05786432 -0.002247158 0.66222984
-0.053931799 -0.002247158 0.66222966
-0.049999271 -0.002247158 0.66222978
-0.046066742 -0.002247158 0.66222966
-0.042134222 -0.0022471577 0.66222978
-0.03819536 -0.0022470609 0.66211498
-0.034968346 -0.0035527155 0.66127372
-0.005605943 -0.00056059432 0.6608209
-0.0022423775 -0.00056059432 0.6608209
0.0022415915 -0.00056047167 0.6606763
0.0050404468 -0.00056004961 0.66017884
0.035340708 -0.0039267456 0.66125625
0.03830988 -0.0023593239 0.66215414
0.042134225 -0.0022471584 0.66222996
0.04606675 -0.0022471584 0.6622299
0.049999278 -0.0022471587 0.66222996
0.053931803 -0.0022471589 0.6622299
0.057864334 -0.0022471584 0.66222996
0.061796859 -0.0022471584 0.6622299
0.066291183 -0.0022471584 0.6622299
0.070223704 -0.0022471587 0.66222996
0.074156225 -0.0022471587 0.6622299
0.078088753 -0.0022471589 0.66222996
0.082021281 -0.0022471589 0.6622299
0.085953809 -0.0022471587 0.66222996
0.089602306 -0.0020853677 0.66191494
-0.092439339 0.0022412562 0.6604014
-0.089886315 0.0022471575 0.6622296
-0.085953794 0.0022471577 0.6622296
-0.082021259 0.0022471575 0.6622296
-0.078088723 0.0022471577 0.66222966
-0.07415621 0.0022471577 0.6622296
-0.070223682 0.0022471577 0.66222966
-0.066291153 0.0022471577 0.66222966
-0.061796837 0.0022471575 0.66222966
-0.05786432 0.0022471577 0.66222972
-0.053931788 0.0022471575 0.66222966
-0.049999263 0.0022471577 0.66222972
-0.046066735 0.002247158 0.66222966
-0.04213421 0.0022471577 0.66222972
-0.039171148 0.0018249674 0.66199499
-0.013733037 0.0036434787 0.66075236
-0.0098103993 0.0027095389 0.6608209
-0.0061665364 0.0022423773 0.6608209
-0.0022423768 0.002242377 0.6608209
0.002242377 0.002242377 0.6608209
0.0061665368 0.0022423768 0.6608209
0.0097883679 0.002544208 0.66078824
0.013266929 0.0035503283 0.66079682
0.039164905 0.0018249034 0.66188484
0.042134222 0.002247158 0.6622299
0.046066742 0.0022471582 0.66222984
0.049999271 0.0022471582 0.66222996
0.053931803 0.0022471582 0.66222984
0.057864334 0.0022471577 0.6622299
0.061796851 0.002247158 0.66222984
0.066291161 0.0022471584 0.66222984
0.070223697 0.0022471577 0.66222996
0.074156217 0.0022471582 0.66222984
0.078088738 0.0022471584 0.6622299
0.082021281 0.0022471584 0.66222984
0.085953809 0.0022471582 0.66222996
0.089886338 0.002247158 0.66222984
0.092986934 0.0026201801 0.66164112
-0.09250921 0.0061674416 0.66090053
-0.089886308 0.0061796834 0.6622296
-0.085953772 0.0061796829 0.6622296
-0.082021259 0.0061796834 0.6622296
-0.078088731 0.0061796838 0.6622296
-0.074156202 0.0061796834 0.6622296
-0.070223667 0.0061796829 0.6622296
-0.066291153 0.0061796829 0.6622296
-0.06179684 0.0061796829 0.6622296
-0.057864308 0.0061796829 0.6622296
-0.053931784 0.0061796834 0.6622296
-0.049999259 0.0061796829 0.6622296
-0.046066735 0.0061796834 0.6622296
-0.042265642 0.0060378783 0.66208416
-0.017235694 0.0063058808 0.66072583
-0.014014855 0.0061665359 0.66082078
-0.010090696 0.0061665364 0.66082084
-0.0061665364 0.0061665364 0.66082078
-0.002242377 0.0061665364 0.66082084
0.0022423768 0.0061665364 0.66082084
0.0061665368 0.0061665368 0.66082084
0.010090697 0.0061665364 0.6608209
0.014014855 0.0061665359 0.66082078
0.017378422 0.0066470457 0.66082084
0.039789256 0.0050437087 0.66060609
0.042121928 0.0061774957 0.66203129
0.046066742 0.0061796834 0.66222972
0.049999267 0.0061796848 0.66222978
0.053931791 0.0061796843 0.66222978
0.057864323 0.0061796848 0.66222978
0.061796844 0.0061796843 0.66222984
0.066291161 0.0061796843 0.66222984
0.070223689 0.0061796848 0.66222978
0.074156217 0.0061796843 0.66222972
0.078088738 0.0061796848 0.66222984
0.082021266 0.0061796843 0.66222972
0.085953794 0.0061796848 0.66222984
0.08988633 0.0061796848 0.6622299
0.093257062 0.0061796848 0.66222984
-0.092579193 0.010099851 0.66140044
-0.089886293 0.010112208 0.66222954
-0.085953772 0.010112208 0.66222954
-0.082021244 0.010112208 0.66222954
-0.078088723 0.010112207 0.66222954
-0.074156195 0.01011221 0.66222954
-0.070223667 0.010112208 0.66222954
-0.066291146 0.010112209 0.6622296
-0.061796829 0.010112208 0.6622296
-0.057864297 0.01011221 0.6622296
-0.053931776 0.010112209 0.6622296
-0.049999256 0.010112208 0.6622296
-0.046065811 0.010111967 0.66221589
-0.043230765 0.0089826658 0.661816
-0.021016708 0.010929026 0.66064316
-0.017939012 0.010090696 0.66082078
-0.014014855 0.010090695 0.66082078
-0.010090695 0.010090695 0.66082072
-0.006166535 0.010090695 0.66082072
-0.0022423766 0.010090695 0.66082084
0.0022423768 0.010090696 0.66082084
0.0061665359 0.010090695 0.66082078
0.010090696 0.010090695 0.66082084
0.014014854 0.010090695 0.66082078
0.017939012 0.010090696 0.66082084
0.021022281 0.010931587 0.66082072
0.042839628 0.0097267348 0.66155332
0.046066735 0.01011221 0.66222966
0.049999263 0.01011221 0.66222966
0.053931791 0.010112211 0.66222966
0.05786432 0.010112211 0.66222972
0.06179684 0.010112211 0.66222966
0.066291161 0.010112211 0.66222966
0.070223689 0.010112211 0.66222972
0.074156202 0.01011221 0.66222966
0.078088731 0.01011221 0.66222972
0.082021259 0.01011221 0.66222966
0.085953794 0.01011221 0.66222972
0.089886308 0.01011221 0.66222966
0.09324266 0.010110513 0.66212821
-0.092649274 0.014037929 0.66190118
-0.089886285 0.014044732 0.66222954
-0.08595375 0.014044732 0.66222954
-0.082021229 0.014044732 0.66222954
-0.078088723 0.014044732 0.66222954
-0.074156187 0.014044732 0.66222954
-0.070223659 0.014044732 0.66222954
-0.066291131 0.014044732 0.66222954
-0.061796825 0.014044732 0.66222954
-0.057864301 0.014044732 0.66222954
-0.053931773 0.014044732 0.66222954
-0.049999245 0.014044732 0.66222954
-0.046055023 0.014040965 0.66205502
-0.024105545 0.01513604 0.6608206
-0.021723021 0.014155001 0.6608206
-0.017939011 0.014014851 0.6608206
-0.014014853 0.014014851 0.66082066
-0.010090694 0.014014852 0.6608206
-0.006166535 0.014014851 0.66082066
-0.0022423763 0.014014852 0.6608206
0.0022423763 0.014014852 0.6608206
0.006166535 0.014014851 0.66082066
0.010090693 0.014014852 0.6608206
0.014014853 0.014014851 0.66082066
0.017939011 0.014014851 0.66082066
0.021723021 0.014155002 0.66082066
0.046403795 0.013932374 0.66222948
0.049999259 0.014044736 0.6622296
0.053931784 0.014044735 0.6622296
0.057864308 0.014044734 0.66222966
0.061796833 0.014044735 0.6622296
0.066291153 0.014044735 0.6622296
0.070223674 0.014044736 0.66222966
0.074156202 0.014044735 0.6622296
0.078088731 0.014044734 0.6622296
0.082021259 0.014044735 0.6622296
0.085953794 0.014044737 0.66222966
0.089886308 0.014044735 0.66222966
0.093207799 0.014037285 0.6618821
-0.092693761 0.017976997 0.66221899
-0.089886278 0.017977254 0.66222948
-0.08595375 0.017977254 0.66222948
-0.082021229 0.017977254 0.66222948
-0.078088701 0.017977254 0.66222948
-0.07415618 0.017977254 0.66222948
-0.070223652 0.017977254 0.66222948
-0.066291131 0.017977254 0.66222948
-0.061796822 0.017977254 0.66222954
-0.057864293 0.017977254 0.66222948
-0.053931769 0.017977254 0.66222954
-0.049999241 0.017977254 0.66222948
-0.046040993 0.017966706 0.66184556
-0.024586055 0.018179266 0.66082054
-0.021863168 0.017939011 0.66082054
-0.017939009 0.017939011 0.6608206
-0.01401485 0.017939011 0.66082054
-0.010090693 0.017939011 0.6608206
-0.006166534 0.017939009 0.66082054
-0.0022423763 0.017939009 0.6608206
0.0022423761 0.017939011 0.6608206
0.0061665345 0.017939011 0.66082054
0.010090692 0.017939012 0.6608206
0.014014851 0.017939009 0.66082054
0.017939011 0.017939011 0.66082066
0.021863168 0.017939011 0.66082054
0.024479276 0.018312739 0.66082066
0.046628516 0.01797726 0.6622296
0.049999256 0.017977258 0.6622296
0.05393178 0.01797726 0.6622296
0.057864305 0.017977262 0.6622296
0.061796837 0.017977258 0.6622296
0.066291146 0.017977258 0.6622296
0.070223667 0.017977258 0.6622296
0.074156195 0.017977258 0.6622296
0.078088723 0.017977258 0.6622296
0.082021244 0.017977258 0.6622296
0.08595378 0.01797726 0.6622296
0.0898863 0.017977262 0.6622296
0.093172774 0.017960962 0.6616348
-0.092695214 0.021909779 0.66222936
-0.089886278 0.021909775 0.66222948
-0.08595375 0.021909777 0.66222948
-0.082021214 0.021909775 0.66222948
-0.078088693 0.021909777 0.66222948
-0.074156173 0.021909775 0.66222948
-0.070223659 0.021909777 0.66222948
-0.066291124 0.021909775 0.66222948
-0.06179681 0.021909775 0.66222948
-0.05786429 0.021909777 0.66222948
-0.053931762 0.021909775 0.66222948
-0.049999237 0.021909777 0.66222948
-0.046389498 0.021790724 0.66201627
-0.024666136 0.021863164 0.66082048
-0.021863166 0.021863166 0.66082054
-0.017939007 0.021863168 0.66082054
-0.01401485 0.021863168 0.66082048
-0.010090691 0.021863168 0.66082048
-0.006166534 0.021863168 0.66082054
-0.0022423761 0.021863168 0.66082054
0.0022423759 0.021863168 0.66082054
0.006166534 0.02186317 0.66082054
0.010090692 0.021863168 0.66082054
0.01401485 0.021863166 0.66082054
0.017939009 0.021863168 0.66082054
0.021863168 0.021863166 0.66082054
0.024666138 0.021863164 0.66082054
0.046628512 0.021909785 0.66222954
0.049999245 0.021909785 0.66222954
0.053931773 0.021909786 0.66222954
0.057864301 0.021909785 0.66222954
0.061796825 0.021909786 0.66222954
0.066291139 0.021909786 0.66222954
0.070223659 0.021909785 0.66222954
0.074156195 0.021909786 0.66222954
0.078088723 0.021909785 0.6622296
0.082021244 0.021909786 0.6622296
0.085953772 0.021909785 0.6622296
0.089886285 0.021909786 0.66222954
0.093137778 0.021881858 0.66138792
-0.093116313 0.0258037 0.66123629
-0.089886256 0.025842296 0.66222942
-0.085953735 0.025842296 0.66222936
-0.082021207 0.025842296 0.66222942
-0.078088693 0.025842296 0.66222942
-0.074156165 0.025842296 0.66222942
-0.070223644 0.025842296 0.66222942
-0.066291124 0.025842296 0.66222942
-0.061796807 0.025842296 0.66222942
-0.057864282 0.025842296 0.66222942
-0.053931758 0.025842296 0.66222942
-0.049999233 0.025842296 0.66222942
-0.046628501 0.025842296 0.66222942
-0.024666132 0.02578732 0.66082042
-0.021863163 0.025787318 0.66082048
-0.017939007 0.025787318 0.66082036
-0.014014848 0.025787318 0.66082048
-0.010090691 0.02578732 0.66082036
-0.006166534 0.025787318 0.66082048
-0.0022423756 0.025787324 0.66082036
0.0022423759 0.025787322 0.66082036
0.006166534 0.025787318 0.66082048
0.010090692 0.025787324 0.66082036
0.014014849 0.025787324 0.66082048
0.017939007 0.025787324 0.66082054
0.021863164 0.025787324 0.66082054
0.024666134 0.025787322 0.66082048
0.046628505 0.025842303 0.66222948
0.049999241 0.025842303 0.66222948
0.053931769 0.025842302 0.66222954
0.057864293 0.025842303 0.66222948
0.061796818 0.025842302 0.66222954
0.066291131 0.025842302 0.66222954
0.070223667 0.025842303 0.66222954
0.074156187 0.025842302 0.66222954
0.078088708 0.025842307 0.66222954
0.082021236 0.025842303 0.66222954
0.08595375 0.025842307 0.66222954
0.089886285 0.025842303 0.66222954
0.092973642 0.025442434 0.66155106
-0.093222626 0.030058959 0.66142029
-0.089886256 0.029774817 0.66222936
-0.085953735 0.029774819 0.6622293
-0.082021199 0.029774817 0.66222936
-0.078088686 0.029774819 0.6622293
-0.074156165 0.029774817 0.66222936
-0.070223637 0.029774819 0.6622293
-0.066291116 0.029774817 0.66222936
-0.061796796 0.029774817 0.66222936
-0.057864282 0.029774819 0.6622293
-0.053931754 0.02977482 0.66222936
-0.049999233 0.029774819 0.6622293
-0.046628498 0.029774819 0.6622293
-0.024666131 0.030272067 0.66082042
-0.021863161 0.030272065 0.66082042
-0.017939003 0.030272067 0.66082036
-0.014014848 0.030272065 0.66082042
-0.010090688 0.03027207 0.66082036
-0.0061665326 0.030272068 0.66082042
-0.0022423756 0.03027207 0.66082036
0.0022423756 0.030272072 0.66082036
0.0061665331 0.030272072 0.66082042
0.010090691 0.030272076 0.66082036
0.014014847 0.030272072 0.66082048
0.017939007 0.030272076 0.66082036
0.021863163 0.030272074 0.66082042
0.024666132 0.030272072 0.66082048
0.04603656 0.030034794 0.66177946
0.049999237 0.029774828 0.66222948
0.053931762 0.029774824 0.66222948
0.057864282 0.029774828 0.66222948
0.06179681 0.029774824 0.66222948
0.066291131 0.029774824 0.66222948
0.070223659 0.029774832 0.66222948
0.074156187 0.029774824 0.66222948
0.078088693 0.029774828 0.66222948
0.082021229 0.029774824 0.66222948
0.08595375 0.029774832 0.66222948
0.089886278 0.029774835 0.66222948
0.092695229 0.02977483 0.66222948
-0.093121111 0.033927865 0.66183668
-0.089886248 0.033707339 0.66222924
-0.085953735 0.033707339 0.66222918
-0.082021199 0.033707339 0.66222924
-0.078088678 0.033707339 0.66222918
-0.074156158 0.033707339 0.66222924
-0.070223629 0.033707339 0.66222918
-0.066291109 0.033707339 0.66222924
-0.061796792 0.033707339 0.66222924
-0.057864279 0.033707339 0.6622293
-0.05393175 0.033707339 0.6622293
-0.049999226 0.033707339 0.66222924
-0.046628494 0.033707339 0.66222918
-0.024105534 0.033635627 0.66082031
-0.021863159 0.034196224 0.66082031
-0.017939003 0.034196224 0.66082042
-0.014014845 0.03419622 0.66082031
-0.010090688 0.034196224 0.66082042
-0.0061665312 0.034196224 0.66082036
-0.0022423759 0.034196228 0.66082042
0.0022423756 0.034196228 0.66082042
0.0061665322 0.034196224 0.66082042
0.010090689 0.034196224 0.66082042
0.014014847 0.034196228 0.66082042
0.017939005 0.034196224 0.66082042
0.021863163 0.034196228 0.66082042
0.024379577 0.033906765 0.66064894
0.046164725 0.033808686 0.66201526
0.049999237 0.033707354 0.66222948
0.053931765 0.03370735 0.66222942
0.057864282 0.033707347 0.66222948
0.06179681 0.033707358 0.66222948
0.066291124 0.033707358 0.66222948
0.070223652 0.033707354 0.66222948
0.074156165 0.033707354 0.66222948
0.078088693 0.033707347 0.66222948
0.082021222 0.033707347 0.66222948
0.08595375 0.033707347 0.66222948
0.089886278 0.033707347 0.66222948
0.092682704 0.033702619 0.66214001
-0.09322755 0.038189828 0.66202152
-0.089886241 0.038201652 0.66222918
-0.08595372 0.038201649 0.66222912
-0.082021199 0.038201652 0.66222918
-0.078088678 0.038201649 0.66222912
-0.074156158 0.038201652 0.66222918
-0.070223622 0.038201649 0.66222912
-0.066291094 0.038201649 0.66222918
-0.061796788 0.038201649 0.66222918
-0.057864267 0.038201649 0.66222912
-0.053931747 0.038201649 0.66222924
-0.049999222 0.038201649 0.66222912
-0.046060242 0.038196336 0.66213286
-0.04321374 0.039285786 0.66155535
-0.021442296 0.037699193 0.66080773
-0.017938999 0.038120374 0.66082025
-0.014014844 0.038120374 0.66082031
-0.010090687 0.038120374 0.66082019
-0.0061665312 0.038120374 0.66082036
-0.0022423752 0.038120382 0.66082031
0.0022423749 0.038120378 0.66082031
0.0061665322 0.038120378 0.66082036
0.010090688 0.038120374 0.66082031
0.014014845 0.038120382 0.66082042
0.017939003 0.038120378 0.66082031
0.021441054 0.037696999 0.66077024
0.046062443 0.038198099 0.66216576
0.049999233 0.038201656 0.66222936
0.05393175 0.038201667 0.66222942
0.057864282 0.038201656 0.66222936
0.061796803 0.03820166 0.66222942
0.066291124 0.038201656 0.66222942
0.070223652 0.03820166 0.66222936
0.074156165 0.03820166 0.66222942
0.078088686 0.03820166 0.66222942
0.082021207 0.038201667 0.66222942
0.085953735 0.038201664 0.66222936
0.08988627 0.03820166 0.66222942
0.092610776 0.038166568 0.66162616
-0.093255617 0.042133581 0.66221958
-0.089886226 0.042134169 0.66222912
-0.085953712 0.042134169 0.66222912
-0.082021184 0.042134169 0.66222912
-0.078088664 0.042134169 0.66222912
-0.074156143 0.042134169 0.66222912
-0.070223622 0.042134169 0.66222912
-0.066291094 0.042134169 0.66222912
-0.061796784 0.042134169 0.66222912
-0.057864256 0.042134169 0.66222912
-0.053931739 0.042134169 0.66222912
-0.049999211 0.042134169 0.66222912
-0.04606669 0.042134169 0.66222912
-0.04243622 0.042275522 0.66192728
-0.020734517 0.040908642 0.66058284
-0.017937435 0.042041089 0.6607675
-0.014014844 0.042044528 0.66082019
-0.010090687 0.042044532 0.66082019
-0.0061665312 0.042044528 0.66082025
-0.0022423747 0.042044532 0.66082019
0.0022423745 0.042044532 0.66082019
0.0061665312 0.042044532 0.66082025
0.010090688 0.042044535 0.66082031
0.014014845 0.042044532 0.66082025
0.017785799 0.041941937 0.66080976
0.042790432 0.042341001 0.66194797
0.046066701 0.042134181 0.66222918
0.04999923 0.042134181 0.66222924
0.053931754 0.042134177 0.66222924
0.057864275 0.042134184 0.6622293
0.061796796 0.042134184 0.66222924
0.066291116 0.042134181 0.66222924
0.070223637 0.042134184 0.6622293
0.074156158 0.042134181 0.6622293
0.078088678 0.042134184 0.66222924
0.082021199 0.042134184 0.6622293
0.085953735 0.042134184 0.6622293
0.089886256 0.042134184 0.66222936
0.092541538 0.042064175 0.6611315
-0.093209505 0.046042673 0.66189408
-0.089886218 0.04606669 0.66222918
-0.08595369 0.04606669 0.66222906
-0.082021177 0.046066698 0.66222918
-0.078088664 0.04606669 0.66222906
-0.074156135 0.046066694 0.66222918
-0.070223607 0.04606669 0.66222906
-0.066291094 0.046066694 0.66222918
-0.061796781 0.046066694 0.66222918
-0.05786426 0.04606669 0.66222906
-0.053931739 0.04606669 0.66222918
-0.049999211 0.04606669 0.66222906
-0.046066694 0.046066698 0.66222918
-0.042134166 0.04606669 0.66222906
-0.03958625 0.046885945 0.66189516
-0.016817812 0.044286903 0.66082019
-0.013874694 0.04526794 0.66082019
-0.010090686 0.045968678 0.66082013
-0.0061665303 0.045968685 0.66082013
-0.0022423747 0.045968685 0.66082013
0.0022423745 0.045968689 0.66082013
0.0061665312 0.045968682 0.66082019
0.010090687 0.045968678 0.66082013
0.013874695 0.045267943 0.66082025
0.016630948 0.044660639 0.66082025
0.03957234 0.046870261 0.66166526
0.042134073 0.046066586 0.66222745
0.046066698 0.04606669 0.66222918
0.049999222 0.046066698 0.66222912
0.053931743 0.046066694 0.66222918
0.057864267 0.046066698 0.66222912
0.061796788 0.046066698 0.66222918
0.066291109 0.046066701 0.66222924
0.070223629 0.046066701 0.66222912
0.074156158 0.046066701 0.66222924
0.078088678 0.046066701 0.66222912
0.082021199 0.046066694 0.66222924
0.08595372 0.046066698 0.66222912
0.089886256 0.046066698 0.66222924
0.092472404 0.045955684 0.66063762
-0.092493698 0.049329385 0.66078973
-0.089876436 0.04999375 0.66215831
-0.08595369 0.049999207 0.662229
-0.082021169 0.049999207 0.662229
-0.078088649 0.049999207 0.662229
-0.074156128 0.049999207 0.662229
-0.0702236 0.049999207 0.662229
-0.066291086 0.049999207 0.662229
-0.061796769 0.049999207 0.662229
-0.057864249 0.049999207 0.662229
-0.053931732 0.049999207 0.662229
-0.049999207 0.049999207 0.66222906
-0.046066683 0.049999207 0.66222906
-0.042134166 0.049999207 0.66222906
-0.03890121 0.050136104 0.66218203
-0.0092487568 0.049047187 0.66075569
-0.0061665303 0.049332242 0.66082007
-0.0022423742 0.049332242 0.66082007
0.0023946704 0.049779128 0.66066748
0.0060061319 0.049570184 0.66079026
0.0089694988 0.048771653 0.66082019
0.038633384 0.050241601 0.66213459
0.042134169 0.049999211 0.66222912
0.04606669 0.049999211 0.66222912
0.049999211 0.049999211 0.66222912
0.053931739 0.049999211 0.66222912
0.057864256 0.049999215 0.66222912
0.061796784 0.049999211 0.66222912
0.066291094 0.049999218 0.66222912
0.070223622 0.049999222 0.66222912
0.074156143 0.049999222 0.66222912
0.078088671 0.049999218 0.66222912
0.082021199 0.049999218 0.66222912
0.08595372 0.049999218 0.66222912
0.089886248 0.049999218 0.66222912
0.092403375 0.049841661 0.66014445
-0.089271784 0.053543292 0.66184497
-0.085953683 0.053931724 0.662229
-0.082021154 0.053931721 0.66222894
-0.078088641 0.053931724 0.662229
-0.074156128 0.053931717 0.66222894
-0.0702236 0.053931724 0.662229
-0.066291079 0.053931728 0.66222894
-0.061796762 0.053931724 0.66222894
-0.057864245 0.053931724 0.662229
-0.053931721 0.053931717 0.66222894
-0.049999207 0.053931724 0.662229
-0.046066679 0.053931728 0.66222894
-0.042134162 0.053931728 0.662229
-0.038201015 0.05393083 0.66221762
-0.035392694 0.055055302 0.66222894
0.034930173 0.054697413 0.66197598
0.038201641 0.053931735 0.66222918
0.042134166 0.053931732 0.66222906
0.04606669 0.053931735 0.66222906
0.049999211 0.053931732 0.66222906
0.053931739 0.053931735 0.66222918
0.05786426 0.053931732 0.66222906
0.061796777 0.053931735 0.66222918
0.066291094 0.053931735 0.66222918
0.070223615 0.053931732 0.66222906
0.074156135 0.053931735 0.66222918
0.078088664 0.053931739 0.66222906
0.082021177 0.053931735 0.66222918
0.085953705 0.053931732 0.66222912
0.089870453 0.053922169 0.6621151
-0.088124454 0.05725234 0.66165543
-0.086049646 0.058077645 0.66210425
-0.082021154 0.057864238 0.66222894
-0.078088634 0.057864241 0.66222888
-0.074156113 0.057864238 0.66222894
-0.0702236 0.057864241 0.66222888
-0.066291071 0.057864238 0.66222894
-0.061796758 0.057864245 0.66222894
-0.057864241 0.057864241 0.66222888
-0.053931724 0.057864245 0.662229
-0.049999204 0.057864241 0.66222894
-0.046066683 0.057864238 0.662229
-0.042134162 0.057864241 0.662229
-0.038201641 0.057864245 0.662229
-0.033930104 0.058085449 0.66218889
-0.030294333 0.058904096 0.66128898
0.031940747 0.057717491 0.6605494
0.034044407 0.057976611 0.662229
0.038201641 0.057864238 0.662229
0.042134162 0.057864249 0.662229
0.046066687 0.057864249 0.662229
0.049999207 0.057864249 0.662229
0.053931728 0.057864249 0.662229
0.057864256 0.057864249 0.662229
0.061796773 0.057864249 0.662229
0.066291086 0.05786426 0.66222906
0.0702236 0.057864256 0.66222906
0.074156135 0.05786426 0.66222906
0.078088656 0.057864256 0.662229
0.082021177 0.05786426 0.662229
0.08595369 0.057864256 0.66222906
0.088958547 0.057674635 0.66189784
-0.085285537 0.061537035 0.66202772
-0.082021147 0.061796758 0.6622287
-0.078088626 0.061796751 0.66222876
-0.074156098 0.061796758 0.6622287
-0.070223592 0.061796755 0.66222876
-0.066291064 0.061796758 0.66222882
-0.061796758 0.061796755 0.6622287
-0.057864234 0.061796755 0.66222876
-0.053931717 0.061796751 0.66222876
-0.049999196 0.061796755 0.66222876
-0.046066672 0.061796755 0.66222882
-0.042134151 0.061796758 0.66222888
-0.038201634 0.061796758 0.66222882
-0.033707321 0.061796762 0.66222882
-0.029774806 0.061796755 0.66222894
-0.026272826 0.062593386 0.66206837
-0.022998249 0.06338542 0.66122001
0.022984795 0.063348338 0.66083324
0.02625287 0.062754601 0.6619581
0.0298738 0.061943617 0.66215891
0.033707328 0.061796758 0.66222888
0.038201638 0.061796758 0.66222888
0.042134162 0.061796766 0.662229
0.046066679 0.061796758 0.66222894
0.049999204 0.061796766 0.662229
0.053931721 0.061796762 0.66222894
0.057864245 0.061796769 0.662229
0.061796766 0.061796777 0.66222894
0.066291071 0.061796769 0.66222894
0.070223592 0.061796773 0.662229
0.074156128 0.061796777 0.66222894
0.078088641 0.061796773 0.662229
0.082021169 0.061796777 0.66222894
0.086004324 0.061579153 0.66190392
0.088120535 0.060056668 0.66162598
-0.084644996 0.064464733 0.66078389
-0.081892237 0.066165455 0.66209757
-0.078088619 0.066291057 0.6622287
-0.074156106 0.066291057 0.6622287
-0.070223577 0.066291064 0.6622287
-0.066291057 0.066291057 0.6622287
-0.061796747 0.066291064 0.6622287
-0.05786423 0.066291057 0.66222876
-0.053931709 0.066291064 0.6622287
-0.049999189 0.066291064 0.66222876
-0.046066668 0.066291057 0.6622287
-0.042134147 0.066291057 0.66222876
-0.038201626 0.066291064 0.6622287
-0.033707313 0.066291064 0.6622287
-0.029774798 0.066291064 0.66222876
-0.025842279 0.066291057 0.6622287
-0.022011902 0.066444278 0.66222876
-0.018389296 0.067239478 0.66188401
0.014582886 0.067862108 0.66111517
0.018191913 0.067039199 0.66184562
0.021905564 0.066278033 0.66209513
0.025842279 0.066291064 0.66222876
0.0297748 0.066291064 0.66222882
0.033707324 0.066291064 0.66222876
0.03820163 0.066291071 0.66222876
0.042134155 0.066291071 0.66222882
0.046066675 0.066291064 0.66222882
0.049999196 0.066291071 0.66222882
0.053931717 0.066291064 0.66222876
0.057864238 0.066291071 0.66222888
0.061796758 0.066291064 0.66222888
0.066291071 0.066291071 0.66222888
0.070223592 0.066291071 0.66222894
0.074156113 0.066291071 0.66222888
0.078088634 0.066291071 0.66222894
0.082005531 0.066278391 0.6621052
0.085071482 0.064879075 0.66119832
-0.081072077 0.070006274 0.66169345
-0.078088611 0.07022357 0.66222864
-0.074156091 0.07022357 0.66222864
-0.07022357 0.070223577 0.66222864
-0.066291057 0.07022357 0.66222864
-0.061796743 0.07022357 0.66222864
-0.057864223 0.070223577 0.66222864
-0.053931709 0.07022357 0.66222864
-0.049999185 0.07022357 0.6622287
-0.04606666 0.070223577 0.66222864
-0.04213414 0.070223577 0.66222864
-0.038201619 0.07022357 0.66222864
-0.033707313 0.07022357 0.6622287
-0.029774798 0.070223577 0.6622287
-0.025842274 0.070223577 0.66222864
-0.021909757 0.070223577 0.66222876
-0.017977236 0.07022357 0.66222864
-0.014036177 0.070179544 0.6618067
-0.010112195 0.070785366 0.66222876
-0.006179675 0.070785366 0.66222876
-0.0022471545 0.070785366 0.66222876
0.0022470895 0.070784204 0.6622178
0.0061763474 0.070749447 0.66189003
0.010107368 0.070747897 0.66187537
0.014044715 0.070223577 0.66222876
0.017977236 0.070223577 0.6622287
0.021909757 0.070223577 0.66222876
0.025842277 0.070223577 0.66222876
0.029774798 0.070223585 0.66222882
0.033707317 0.070223577 0.66222876
0.038201626 0.070223585 0.66222876
0.042134147 0.070223585 0.66222876
0.046066668 0.070223585 0.6622287
0.049999192 0.070223585 0.66222882
0.053931713 0.070223585 0.66222876
0.05786423 0.070223592 0.66222882
0.061796755 0.070223592 0.66222876
0.066291064 0.070223585 0.66222876
0.070223592 0.070223592 0.66222882
0.074156106 0.070223585 0.66222882
0.078088626 0.070223585 0.66222882
0.081094697 0.070025466 0.66187572
-0.080196112 0.072904974 0.6610775
