# .PCD v0.7 - Point Cloud Data file format
VERSION 0.7
FIELDS x y z
SIZE 4 4 4
TYPE F F F
COUNT 1 1 1
WIDTH 1320
HEIGHT 1
VIEWPOINT 0 0 0 1 0 0 0
POINTS 1320
DATA ascii
-0.0050452827 -0.027468761 0.66081226
-0.0039240401 -0.027468281 0.6608007
-0.0028028369 -0.027467802 0.66078919
-0.0016816728 -0.027467322 0.66077763
-0.00056054787 -0.027466845 0.66076612
0.00056053803 -0.027466364 0.66075456
0.0016815849 -0.027465886 0.66074306
0.0028025922 -0.027465405 0.66073149
0.003923561 -0.027464926 0.66071999
0.0050444906 -0.027464448 0.66070849
0.0061653806 -0.027463967 0.66069692
0.007286232 -0.02746349 0.66068542
0.0084070433 -0.02746301 0.66067386
0.0095278164 -0.027462531 0.66066235
0.01064855 -0.027462052 0.66065085
0.011769245 -0.027461572 0.66063929
0.012889901 -0.027461093 0.66062778
0.014010518 -0.027460616 0.66061628
0.015131094 -0.027460136 0.66060472
0.016251633 -0.027459657 0.66059321
0.017372133 -0.027459178 0.66058171
0.018492592 -0.027458698 0.66057014
0.019613015 -0.027458219 0.66055864
0.020733396 -0.027457742 0.66054714
0.021853738 -0.027457261 0.66053557
0.022974042 -0.027456783 0.66052407
0.024094308 -0.027456304 0.66051257
0.025214532 -0.027455823 0.660501
0.02633472 -0.027455345 0.6604895
0.027454868 -0.027454868 0.660478
0.028574977 -0.027454389 0.66046649
0.029695043 -0.027453909 0.66045493
0.030815074 -0.02745343 0.66044343
0.031935066 -0.027452951 0.66043192
0.033055019 -0.027452474 0.66042042
0.03417493 -0.027451994 0.66040885
0.035294805 -0.027451515 0.66039735
0.036414642 -0.027451036 0.66038585
0.037534438 -0.027450558 0.66037434
0.038654193 -0.027450081 0.66036284
0.039773911 -0.0274496 0.66035128
0.040893588 -0.027449122 0.66033977
0.042013228 -0.027448643 0.66032827
0.04313283 -0.027448164 0.66031677
0.044252392 -0.027447687 0.66030526
0.045371916 -0.027447209 0.66029376
0.046491399 -0.02744673 0.66028225
0.047610842 -0.027446249 0.66027069
0.048730247 -0.027445771 0.66025919
0.049849615 -0.027445294 0.66024768
0.050968941 -0.027444815 0.66023618
0.052088231 -0.027444337 0.66022468
0.053207483 -0.02744386 0.66021317
0.054133106 -0.02734559 0.65784913
0.055010464 -0.027227402 0.65500587
0.055880263 -0.027110228 0.65218705
0.056742616 -0.026994061 0.64939243
0.057597607 -0.026878884 0.64662164
0.058445334 -0.026764687 0.64387441
0.05928589 -0.026651455 0.64115041
0.060119335 -0.026539166 0.63844907
0.060945783 -0.026427817 0.63577038
0.061998956 -0.026416946 0.63550889
0.063059494 -0.026409531 0.6353305
0.064119428 -0.026402118 0.63515216
0.065178767 -0.026394708 0.63497388
0.066237517 -0.026387302 0.63479573
0.067295663 -0.026379902 0.63461769
0.068353228 -0.026372505 0.63443977
0.06941019 -0.026365113 0.63426191
0.070466571 -0.026357723 0.63408417
0.071522355 -0.02635034 0.63390654
0.072577544 -0.02634296 0.63372898
0.073632143 -0.026335584 0.63355154
0.074686155 -0.026328212 0.63337421
0.07573957 -0.026320843 0.63319695
0.076792404 -0.02631348 0.6330198
0.077844642 -0.026306121 0.63284278
0.078896299 -0.026298765 0.63266581
0.07994736 -0.026291415 0.63248897
-0.12545243 -0.025305854 0.63468498
-0.12441359 -0.025313586 0.63487893
-0.1233741 -0.025321322 0.63507295
-0.122334 -0.025329065 0.63526714
-0.12129324 -0.025336809 0.63546139
-0.12025186 -0.025344562 0.63565582
-0.11920984 -0.02535232 0.63585037
-0.11816718 -0.025360079 0.63604498
-0.11712388 -0.025367845 0.63623977
-0.11607993 -0.025375614 0.63643461
-0.11503536 -0.02538339 0.63662964
-0.11399014 -0.025391169 0.63682473
-0.11294428 -0.025398955 0.63701999
-0.11189779 -0.025406744 0.63721538
-0.11085064 -0.025414538 0.63741082
-0.11013159 -0.025498448 0.63951534
-0.10948364 -0.025600653 0.6420787
-0.10883048 -0.025703682 0.64466274
-0.10817204 -0.025807541 0.64726758
-0.10750826 -0.025912246 0.64989364
-0.10683906 -0.026017802 0.65254104
-0.1061644 -0.026124222 0.65521014
-0.10548418 -0.026231516 0.65790111
-0.10479837 -0.026339699 0.66061437
-0.10386823 -0.026388146 0.66182947
-0.10274354 -0.026387684 0.66181791
-0.10161889 -0.026387224 0.66180634
-0.10049427 -0.026386762 0.66179478
-0.09936969 -0.026386302 0.66178322
-0.098245151 -0.02638584 0.66177166
-0.09712065 -0.02638538 0.66176009
-0.095996194 -0.026384918 0.66174853
-0.094871774 -0.026384458 0.66173697
-0.093747392 -0.026383996 0.6617254
-0.092623048 -0.026383536 0.66171384
-0.091498747 -0.026383074 0.66170228
-0.090374485 -0.026382614 0.66169071
-0.089250259 -0.026382152 0.66167915
-0.088126071 -0.026381692 0.66166759
-0.087001927 -0.02638123 0.66165602
-0.085877821 -0.02638077 0.66164446
-0.084753752 -0.026380308 0.6616329
-0.083629727 -0.026379846 0.66162133
-0.08250574 -0.026379386 0.66160977
-0.08138179 -0.026378924 0.66159821
-0.080257878 -0.026378464 0.66158664
-0.079134017 -0.026378006 0.66157514
-0.078010187 -0.026377544 0.66156358
-0.076886393 -0.026377084 0.66155201
-0.075762637 -0.026376622 0.66154045
-0.074638925 -0.026376162 0.66152889
-0.073515251 -0.0263757 0.66151732
-0.072391614 -0.02637524 0.66150576
-0.071268015 -0.026374778 0.6614942
-0.070144467 -0.02637432 0.66148269
-0.069020949 -0.026373858 0.66147113
-0.067897469 -0.026373398 0.66145957
-0.066774033 -0.026372936 0.661448
-0.065650627 -0.026372476 0.66143644
-0.064527266 -0.026372014 0.66142488
-0.063403949 -0.026371555 0.66141337
-0.06228067 -0.026371093 0.66140181
-0.061157424 -0.026370633 0.66139024
-0.060034223 -0.026370171 0.66137868
-0.058911055 -0.026369711 0.66136712
-0.057787936 -0.026369253 0.66135561
-0.056664851 -0.026368791 0.66134405
-0.055541802 -0.026368331 0.66133249
-0.054418795 -0.026367869 0.66132092
-0.053295828 -0.026367411 0.66130942
-0.052172899 -0.026366949 0.66129786
-0.051050011 -0.026366489 0.66128629
-0.049927156 -0.026366027 0.66127473
-0.04880435 -0.026365569 0.66126323
-0.047681578 -0.026365107 0.66125166
-0.046558846 -0.026364647 0.6612401
-0.045436151 -0.026364185 0.66122854
-0.044313498 -0.026363727 0.66121703
-0.043190882 -0.026363267 0.66120547
-0.042068306 -0.026362805 0.66119391
-0.040945772 -0.026362346 0.6611824
-0.039823275 -0.026361885 0.66117084
-0.038700815 -0.026361424 0.66115928
-0.037578396 -0.026360966 0.66114777
-0.036456015 -0.026360504 0.66113621
-0.035333674 -0.026360042 0.66112465
-0.034211375 -0.026359584 0.66111314
-0.033089112 -0.026359124 0.66110158
-0.031966891 -0.026358664 0.66109008
-0.030844707 -0.026358204 0.66107851
-0.02972256 -0.026357742 0.66106695
-0.028600458 -0.026357284 0.66105545
-0.027478389 -0.026356824 0.66104388
-0.026356364 -0.026356364 0.66103238
-0.025234375 -0.026355904 0.66102082
-0.024112426 -0.026355442 0.66100925
-0.022990517 -0.026354983 0.66099775
-0.021868646 -0.026354523 0.66098619
-0.020746816 -0.026354063 0.66097468
-0.019625023 -0.026353603 0.66096312
-0.018503271 -0.026353145 0.66095161
-0.017381556 -0.026352683 0.66094005
-0.016259883 -0.026352225 0.66092855
-0.015138247 -0.026351763 0.66091698
-0.014016652 -0.026351305 0.66090548
-0.012895093 -0.026350845 0.66089392
-0.011773576 -0.026350385 0.66088241
-0.010652097 -0.026349925 0.66087085
-0.0095306579 -0.026349466 0.66085935
-0.008409257 -0.026349004 0.66084778
-0.0072878958 -0.026348546 0.66083628
-0.0061665731 -0.026348084 0.66082472
-0.0050452901 -0.026347626 0.66081321
-0.0039240457 -0.026347164 0.66080165
-0.0028028411 -0.026346706 0.66079015
-0.0016816752 -0.026346246 0.66077858
-0.00056054862 -0.026345786 0.66076708
0.00056053884 -0.026345326 0.66075552
0.0016815872 -0.026344867 0.66074401
0.0028025967 -0.026344407 0.66073251
0.0039235665 -0.026343947 0.66072094
0.0050444975 -0.026343489 0.66070944
0.0061653894 -0.026343027 0.66069788
0.0072862422 -0.026342569 0.66068637
0.0084070563 -0.026342111 0.66067487
0.0095278304 -0.026341649 0.66066331
0.010648566 -0.026341191 0.6606518
0.011769262 -0.026340729 0.66064024
0.01288992 -0.02634027 0.66062874
0.014010538 -0.026339812 0.66061723
0.015131117 -0.02633935 0.66060567
0.016251657 -0.026338892 0.66059417
0.017372157 -0.026338434 0.66058266
0.018492619 -0.026337972 0.6605711
0.019613042 -0.026337514 0.66055959
0.020733427 -0.026337055 0.66054809
0.021853769 -0.026336594 0.66053653
0.022974076 -0.026336135 0.66052502
0.024094343 -0.026335677 0.66051352
0.02521457 -0.026335219 0.66050202
0.026334757 -0.026334757 0.66049045
0.027454907 -0.026334299 0.66047895
0.028575018 -0.026333841 0.66046745
0.02969509 -0.02633338 0.66045594
0.030815119 -0.02633292 0.66044438
0.031935114 -0.026332462 0.66043288
0.033055067 -0.026332002 0.66042137
0.034174982 -0.026331544 0.66040987
0.035294857 -0.026331084 0.6603983
0.036414694 -0.026330624 0.6603868
0.03753449 -0.026330166 0.6603753
0.038654249 -0.026329707 0.66036379
0.039773971 -0.026329249 0.66035229
0.040893648 -0.026328787 0.66034073
0.042013291 -0.026328329 0.66032922
0.043132894 -0.026327871 0.66031772
0.044252459 -0.026327411 0.66030622
0.045371983 -0.026326953 0.66029471
0.046491466 -0.026326494 0.66028321
0.047610916 -0.026326036 0.6602717
0.048730318 -0.026325574 0.66026014
0.049849685 -0.026325116 0.66024864
0.050969016 -0.026324658 0.66023713
0.052088305 -0.026324198 0.66022563
0.053207558 -0.026323739 0.66021413
0.054326773 -0.026323281 0.66020262
0.055215798 -0.026213562 0.6574508
0.056087948 -0.026100332 0.65461093
0.056952599 -0.02598808 0.65179557
0.057809841 -0.025876787 0.64900428
0.05865977 -0.025766442 0.64623678
0.059502486 -0.025657035 0.64349282
0.060338076 -0.025548555 0.64077204
0.061166603 -0.025440976 0.63807392
0.062013164 -0.02534451 0.63565451
0.063073926 -0.025337391 0.63547593
0.064134106 -0.025330277 0.63529754
0.065193683 -0.025323167 0.6351192
0.066252671 -0.025316061 0.63494098
0.067311063 -0.025308959 0.63476288
0.06836886 -0.025301861 0.63458484
0.06942606 -0.025294768 0.63440692
0.070482671 -0.025287675 0.63422906
0.071538694 -0.025280591 0.63405138
0.072594121 -0.025273509 0.63387376
0.073648952 -0.025266429 0.6336962
0.074703202 -0.025259357 0.63351882
0.075756863 -0.025252286 0.63334149
0.07680992 -0.025245219 0.63316423
0.077862397 -0.025238156 0.63298708
0.078914285 -0.025231097 0.63281006
0.079965584 -0.025224045 0.63263315
0.081010737 -0.025215263 0.63241291
-0.12650502 -0.024224365 0.63456333
-0.12546669 -0.024231764 0.63475716
-0.12442773 -0.024239168 0.63495111
-0.12338815 -0.024246579 0.63514525
-0.12234792 -0.024253992 0.63533944
-0.12130705 -0.024261411 0.63553375
-0.12026556 -0.024268836 0.63572824
-0.11922342 -0.024276262 0.63592279
-0.11818064 -0.024283694 0.63611746
-0.11713724 -0.024291132 0.63631231
-0.11609318 -0.024298573 0.63650721
-0.11504848 -0.024306018 0.63670224
-0.11400314 -0.024313467 0.63689739
-0.11295718 -0.024320923 0.63709271
-0.11191056 -0.024328383 0.63728809
-0.11092858 -0.024350176 0.63785899
-0.1102855 -0.024447525 0.64040905
-0.10963726 -0.024545657 0.64297962
-0.10898379 -0.024644576 0.64557087
-0.10832505 -0.0247443 0.64818317
-0.10766093 -0.024844833 0.65081662
-0.10699142 -0.024946185 0.65347159
-0.1063164 -0.025048366 0.65614825
-0.10563584 -0.025151392 0.65884703
-0.10494972 -0.02525528 0.6615684
-0.10386838 -0.025265282 0.66183043
-0.10274369 -0.025264841 0.66181886
-0.10161903 -0.025264399 0.6618073
-0.10049441 -0.025263958 0.66179574
-0.099369831 -0.025263516 0.66178417
-0.098245293 -0.025263075 0.66177261
-0.097120792 -0.025262633 0.66176105
-0.095996328 -0.025262192 0.66174948
-0.094871908 -0.02526175 0.66173792
-0.093747526 -0.025261309 0.66172636
-0.092623182 -0.025260868 0.66171479
-0.091498882 -0.025260426 0.66170323
-0.090374611 -0.025259985 0.66169167
-0.089250386 -0.025259543 0.6616801
-0.088126205 -0.025259102 0.66166854
-0.087002054 -0.02525866 0.66165698
-0.085877948 -0.025258219 0.66164541
-0.084753878 -0.025257777 0.66163385
-0.083629847 -0.025257336 0.66162229
-0.082505867 -0.025256898 0.66161078
-0.081381917 -0.025256457 0.66159922
-0.080258004 -0.025256015 0.66158766
-0.079134129 -0.025255574 0.66157609
-0.078010298 -0.025255132 0.66156453
-0.076886505 -0.025254691 0.66155297
-0.075762749 -0.02525425 0.6615414
-0.07463903 -0.025253808 0.66152984
-0.073515356 -0.025253367 0.66151828
-0.072391719 -0.025252925 0.66150671
-0.071268126 -0.025252486 0.66149521
-0.070144564 -0.025252044 0.66148365
-0.069021046 -0.025251603 0.66147208
-0.067897566 -0.025251161 0.66146052
-0.066774122 -0.02525072 0.66144896
-0.065650724 -0.025250278 0.66143739
-0.06452737 -0.025249839 0.66142589
-0.063404046 -0.025249397 0.66141433
-0.062280759 -0.025248956 0.66140276
-0.061157513 -0.025248514 0.6613912
-0.060034309 -0.025248073 0.66137964
-0.058911148 -0.025247633 0.66136813
-0.057788018 -0.025247192 0.66135657
-0.056664933 -0.025246751 0.66134501
-0.05554188 -0.025246311 0.66133344
-0.054418873 -0.02524587 0.66132188
-0.053295907 -0.02524543 0.66131037
-0.052172974 -0.025244989 0.66129881
-0.051050082 -0.025244547 0.66128725
-0.049927235 -0.025244107 0.66127574
-0.048804421 -0.025243666 0.66126418
-0.047681648 -0.025243225 0.66125262
-0.046558913 -0.025242783 0.66124105
-0.045436218 -0.025242344 0.66122955
-0.044313561 -0.025241902 0.66121799
-0.043190945 -0.025241461 0.66120642
-0.042068366 -0.025241019 0.66119486
-0.040945832 -0.025240581 0.66118336
-0.039823331 -0.02524014 0.66117179
-0.038700871 -0.025239699 0.66116023
-0.037578452 -0.025239259 0.66114873
-0.036456071 -0.025238818 0.66113716
-0.03533373 -0.025238378 0.66112566
-0.034211427 -0.025237937 0.6611141
-0.033089161 -0.025237495 0.66110253
-0.031966936 -0.025237055 0.66109103
-0.030844752 -0.025236614 0.66107947
-0.029722607 -0.025236176 0.66106796
-0.028600499 -0.025235735 0.6610564
-0.02747843 -0.025235293 0.66104484
-0.026356403 -0.025234854 0.66103333
-0.025234412 -0.025234412 0.66102177
-0.024112463 -0.025233973 0.66101027
-0.022990551 -0.025233531 0.6609987
-0.02186868 -0.025233092 0.6609872
-0.020746846 -0.02523265 0.66097564
-0.019625053 -0.025232211 0.66096413
-0.018503299 -0.025231771 0.66095257
-0.017381582 -0.02523133 0.660941
-0.016259907 -0.02523089 0.6609295
-0.015138269 -0.025230449 0.66091794
-0.014016672 -0.025230009 0.66090643
-0.012895112 -0.025229568 0.66089487
-0.011773594 -0.025229128 0.66088337
-0.010652113 -0.025228687 0.6608718
-0.0095306719 -0.025228247 0.6608603
-0.0084092692 -0.025227806 0.66084874
-0.007287906 -0.025227368 0.66083723
-0.006166582 -0.025226926 0.66082567
-0.0050452976 -0.025226487 0.66081417
-0.0039240513 -0.025226045 0.6608026
-0.0028028451 -0.025225606 0.6607911
-0.0016816778 -0.025225166 0.6607796
-0.00056054944 -0.025224725 0.66076803
0.00056053972 -0.025224287 0.66075653
0.0016815896 -0.025223846 0.66074497
0.0028026006 -0.025223406 0.66073346
0.0039235721 -0.025222965 0.6607219
0.005044505 -0.025222525 0.66071039
0.0061653988 -0.025222085 0.66069889
0.0072862529 -0.025221644 0.66068733
0.0084070684 -0.025221206 0.66067582
0.0095278444 -0.025220765 0.66066426
0.010648582 -0.025220325 0.66065276
0.01176928 -0.025219886 0.66064125
0.012889938 -0.025219444 0.66062969
0.014010559 -0.025219005 0.66061819
0.01513114 -0.025218567 0.66060668
0.01625168 -0.025218125 0.66059512
0.017372184 -0.025217686 0.66058362
0.018492647 -0.025217246 0.66057211
0.01961307 -0.025216805 0.66056055
0.020733457 -0.025216365 0.66054904
0.021853803 -0.025215928 0.66053754
0.022974109 -0.025215486 0.66052598
0.024094377 -0.025215046 0.66051447
0.025214607 -0.025214607 0.66050297
0.026334798 -0.025214167 0.66049147
0.027454946 -0.025213726 0.6604799
0.028575059 -0.025213286 0.6604684
0.029695133 -0.025212849 0.6604569
0.030815165 -0.025212409 0.66044539
0.031935159 -0.025211968 0.66043383
0.033055115 -0.025211528 0.66042233
0.034175031 -0.025211088 0.66041082
0.035294909 -0.025210651 0.66039932
0.036414746 -0.025210209 0.66038775
0.037534546 -0.02520977 0.66037625
0.038654305 -0.02520933 0.66036475
0.039774027 -0.02520889 0.66035324
0.040893711 -0.025208453 0.66034174
0.042013351 -0.025208011 0.66033018
0.043132957 -0.025207572 0.66031867
0.044252522 -0.025207132 0.66030717
0.045372047 -0.025206693 0.66029567
0.046491534 -0.025206255 0.66028416
0.047610983 -0.025205815 0.66027266
0.048730392 -0.025205376 0.66026115
0.04984976 -0.025204934 0.66024959
0.05096909 -0.025204495 0.66023809
0.052088384 -0.025204055 0.66022658
0.053207636 -0.025203617 0.66021508
0.054326851 -0.025203178 0.66020358
0.055422671 -0.025192123 0.65991402
0.056297179 -0.025082903 0.65705293
0.057164136 -0.024974624 0.65421653
0.058023639 -0.024867274 0.6514045
0.058875784 -0.024760844 0.64861655
0.059720673 -0.024655323 0.64585239
0.060558382 -0.024550695 0.64311165
0.061389018 -0.024446953 0.64039409
0.062212639 -0.024344075 0.63769919
0.063088372 -0.02426476 0.63562149
0.064148791 -0.024257945 0.63544297
0.065208606 -0.024251135 0.63526458
0.066267833 -0.024244329 0.6350863
0.067326464 -0.024237525 0.63490808
0.068384498 -0.024230726 0.63472998
0.069441929 -0.024223929 0.63455194
0.070498787 -0.02421714 0.63437408
0.071555041 -0.024210352 0.63419628
0.072610706 -0.024203567 0.63401854
0.073665775 -0.024196787 0.63384092
0.074720256 -0.024190011 0.63366342
0.075774148 -0.02418324 0.63348603
0.076827452 -0.024176469 0.63330871
0.077880159 -0.024169706 0.6331315
0.078926332 -0.024161123 0.63290668
0.079971589 -0.024152493 0.63268065
0.081016108 -0.024143873 0.63245481
-0.1265194 -0.023150356 0.63463545
-0.12548096 -0.023157431 0.63482934
-0.12444188 -0.023164507 0.63502336
-0.12340219 -0.023171589 0.63521749
-0.12236184 -0.023178674 0.63541174
-0.12132087 -0.023185767 0.63560617
-0.12027926 -0.023192862 0.63580066
-0.11923701 -0.023199961 0.63599527
-0.11819412 -0.023207065 0.63619
-0.11715059 -0.023214173 0.63638484
-0.11610642 -0.023221284 0.63657981
-0.11506161 -0.023228401 0.6367749
-0.11401616 -0.02323552 0.6369701
-0.11297007 -0.023242647 0.63716543
-0.11192334 -0.023249775 0.63736087
-0.1110832 -0.02330038 0.63874811
-0.11043984 -0.023393663 0.64130533
-0.10979131 -0.023487693 0.64388305
-0.10913754 -0.023582485 0.64648163
-0.10847848 -0.023678044 0.64910126
-0.10781405 -0.023774382 0.65174222
-0.1071442 -0.023871506 0.65440476
-0.10646885 -0.023969427 0.65708911
-0.10578796 -0.02406816 0.65979576
-0.10499328 -0.024142839 0.661843
-0.10386854 -0.024142418 0.66183144
-0.10274384 -0.024141995 0.66181988
-0.10161918 -0.024141574 0.66180831
-0.10049456 -0.024141153 0.66179675
-0.099369988 -0.024140731 0.66178519
-0.098245442 -0.02414031 0.66177362
-0.097120941 -0.024139887 0.66176206
-0.095996477 -0.024139466 0.6617505
-0.094872057 -0.024139043 0.66173893
-0.093747661 -0.02413862 0.66172731
-0.092623316 -0.024138197 0.66171575
-0.091499008 -0.024137776 0.66170418
-0.090374753 -0.024137355 0.66169268
-0.089250527 -0.024136934 0.66168112
-0.088126339 -0.024136512 0.66166955
-0.087002188 -0.024136091 0.66165799
-0.085878074 -0.02413567 0.66164643
-0.084754005 -0.024135247 0.66163486
-0.083629973 -0.024134826 0.6616233
-0.082505986 -0.024134403 0.66161174
-0.081382029 -0.024133982 0.66160017
-0.080258116 -0.024133559 0.66158861
-0.079134241 -0.024133138 0.66157705
-0.07801041 -0.024132716 0.66156548
-0.076886609 -0.024132295 0.66155392
-0.075762853 -0.024131872 0.66154236
-0.074639142 -0.024131451 0.66153079
-0.073515467 -0.024131032 0.66151929
-0.07239183 -0.024130609 0.66150773
-0.071268231 -0.024130188 0.66149616
-0.070144668 -0.024129765 0.6614846
-0.069021143 -0.024129344 0.66147304
-0.067897663 -0.024128921 0.66146147
-0.066774219 -0.0241285 0.66144991
-0.065650821 -0.024128081 0.66143841
-0.064527459 -0.024127658 0.66142684
-0.063404135 -0.024127237 0.66141528
-0.062280849 -0.024126815 0.66140372
-0.061157603 -0.024126394 0.66139215
-0.060034402 -0.024125975 0.66138065
-0.05891123 -0.024125552 0.66136909
-0.057788104 -0.024125131 0.66135752
-0.056665014 -0.024124708 0.66134596
-0.055541962 -0.024124287 0.6613344
-0.054418955 -0.024123866 0.66132289
-0.053295985 -0.024123445 0.66131133
-0.052173052 -0.024123024 0.66129977
-0.051050156 -0.024122601 0.6612882
-0.049927305 -0.024122182 0.6612767
-0.048804492 -0.024121759 0.66126513
-0.047681715 -0.024121339 0.66125357
-0.046558984 -0.024120919 0.66124207
-0.045436285 -0.024120497 0.6612305
-0.044313625 -0.024120076 0.66121894
-0.043191008 -0.024119653 0.66120738
-0.042068429 -0.024119234 0.66119587
-0.040945891 -0.024118811 0.66118431
-0.039823387 -0.02411839 0.66117275
-0.038700931 -0.024117971 0.66116124
-0.037578505 -0.024117548 0.66114968
-0.036456123 -0.024117127 0.66113812
-0.035333779 -0.024116708 0.66112661
-0.034211475 -0.024116285 0.66111505
-0.033089209 -0.024115866 0.66110355
-0.031966984 -0.024115443 0.66109198
-0.030844796 -0.024115022 0.66108042
-0.02972265 -0.024114603 0.66106892
-0.02860054 -0.02411418 0.66105735
-0.027478471 -0.024113761 0.66104585
-0.02635644 -0.024113338 0.66103429
-0.025234452 -0.024112919 0.66102278
-0.024112498 -0.024112498 0.66101122
-0.022990584 -0.024112076 0.66099966
-0.021868711 -0.024111656 0.66098815
-0.020746876 -0.024111234 0.66097659
-0.019625083 -0.024110815 0.66096509
-0.018503325 -0.024110394 0.66095352
-0.017381608 -0.024109973 0.66094202
-0.016259931 -0.024109552 0.66093045
-0.015138292 -0.024109133 0.66091895
-0.014016692 -0.02410871 0.66090739
-0.012895132 -0.024108291 0.66089588
-0.01177361 -0.024107868 0.66088432
-0.010652129 -0.024107449 0.66087282
-0.0095306849 -0.024107028 0.66086125
-0.0084092822 -0.024106607 0.66084975
-0.0072879167 -0.024106186 0.66083819
-0.0061665913 -0.024105767 0.66082668
-0.0050453045 -0.024105344 0.66081512
-0.0039240574 -0.024104925 0.66080362
-0.0028028493 -0.024104502 0.66079205
-0.0016816802 -0.024104083 0.66078055
-0.00056055025 -0.024103662 0.66076899
0.00056054053 -0.024103241 0.66075748
0.0016815921 -0.02410282 0.66074592
0.0028026048 -0.024102401 0.66073442
0.0039235782 -0.02410198 0.66072291
0.0050445125 -0.024101559 0.66071135
0.0061654076 -0.02410114 0.66069984
0.0072862636 -0.024100717 0.66068828
0.0084070805 -0.024100298 0.66067678
0.0095278593 -0.024099879 0.66066527
0.010648597 -0.024099456 0.66065371
0.011769297 -0.024099037 0.66064221
0.012889957 -0.024098614 0.66063064
0.014010578 -0.024098195 0.66061914
0.015131162 -0.024097776 0.66060764
0.016251704 -0.024097353 0.66059607
0.017372208 -0.024096934 0.66058457
0.018492674 -0.024096515 0.66057307
0.019613098 -0.024096092 0.6605615
0.020733487 -0.024095673 0.66055
0.021853834 -0.024095254 0.66053849
0.022974145 -0.024094833 0.66052699
0.024094412 -0.024094412 0.66051543
0.025214644 -0.024093993 0.66050392
0.026334835 -0.024093572 0.66049242
0.027454985 -0.024093151 0.66048086
0.0285751 -0.024092732 0.66046935
0.029695176 -0.024092311 0.66045785
0.03081521 -0.024091892 0.66044635
0.031935208 -0.024091473 0.66043484
0.033055164 -0.02409105 0.66042328
0.034175083 -0.024090631 0.66041178
0.035294961 -0.024090212 0.66040027
0.036414802 -0.024089793 0.66038877
0.037534598 -0.02408937 0.6603772
0.038654361 -0.024088951 0.6603657
0.039774086 -0.02408853 0.6603542
0.040893771 -0.024088111 0.66034269
0.042013414 -0.024087692 0.66033119
0.04313302 -0.024087273 0.66031969
0.044252586 -0.02408685 0.66030812
0.045372114 -0.024086431 0.66029662
0.046491601 -0.024086012 0.66028512
0.047611054 -0.024085591 0.66027361
0.048730463 -0.024085172 0.66026211
0.049849834 -0.024084752 0.6602506
0.050969169 -0.024084331 0.6602391
0.052088458 -0.024083911 0.66022754
0.05320771 -0.024083491 0.66021603
0.054326929 -0.02408307 0.66020453
0.055446103 -0.024082651 0.66019303
0.056507979 -0.024057852 0.65951318
0.057377253 -0.023953611 0.65665555
0.058239024 -0.023850268 0.65382254
0.059093397 -0.023747815 0.65101391
0.059940461 -0.023646235 0.6482293
0.060780305 -0.023545524 0.64546841
0.061613031 -0.023445666 0.64273095
0.062438723 -0.023346653 0.64001662
0.063257448 -0.023248464 0.63732493
0.064163484 -0.023185125 0.63558853
0.065223537 -0.023178611 0.63541001
0.066283002 -0.023172107 0.63523167
0.067341864 -0.0231656 0.63505334
0.068400137 -0.023159102 0.63487518
0.069457814 -0.023152605 0.63469708
0.070514902 -0.023146113 0.6345191
0.071571395 -0.023139626 0.63434124
0.072627299 -0.023133138 0.63416344
0.073682606 -0.023126658 0.63398576
0.074737318 -0.023120178 0.63380814
0.075791106 -0.023113599 0.63362777
0.076838672 -0.023105334 0.63340122
0.077885494 -0.023097077 0.63317484
0.078931563 -0.023088826 0.63294864
0.079976887 -0.023080578 0.63272256
0.081021465 -0.023072338 0.63249665
-0.12653378 -0.022076108 0.63470763
-0.12549524 -0.022082852 0.63490158
-0.12445606 -0.022089602 0.63509566
-0.12341623 -0.022096355 0.63528979
-0.12237578 -0.022103114 0.6354841
-0.12133469 -0.022109875 0.63567853
-0.12029296 -0.022116642 0.63587308
-0.1192506 -0.022123413 0.63606775
-0.11820758 -0.022130188 0.63626248
-0.11716394 -0.022136966 0.63645738
-0.11611966 -0.02214375 0.63665241
-0.11507474 -0.022150537 0.63684756
-0.11402918 -0.022157328 0.63704282
-0.11298297 -0.022164121 0.63723814
-0.11193612 -0.022170922 0.63743365
-0.11123826 -0.022247652 0.63963968
-0.11059462 -0.022336844 0.64220405
-0.1099458 -0.022426754 0.64478904
-0.10929173 -0.022517392 0.64739496
-0.10863236 -0.022608764 0.65002203
-0.10796762 -0.022700883 0.6526705
-0.10729743 -0.022793753 0.65534061
-0.10662174 -0.02288739 0.65803272
-0.10594054 -0.022981811 0.66074741
-0.10499343 -0.023019951 0.66184396
-0.10386869 -0.023019549 0.66183239
-0.10274399 -0.023019146 0.66182083
-0.10161933 -0.023018744 0.66180927
-0.10049471 -0.023018342 0.6617977
-0.099370129 -0.023017939 0.66178614
-0.098245583 -0.023017537 0.66177458
-0.097121082 -0.023017135 0.66176301
-0.095996618 -0.023016732 0.66175145
-0.094872192 -0.02301633 0.66173989
-0.093747802 -0.023015928 0.66172832
-0.092623457 -0.023015525 0.66171676
-0.09149915 -0.023015123 0.6617052
-0.09037488 -0.023014722 0.66169363
-0.089250654 -0.02301432 0.66168207
-0.088126466 -0.023013918 0.66167051
-0.087002315 -0.023013515 0.66165894
-0.085878201 -0.023013113 0.66164738
-0.084754132 -0.023012711 0.66163582
-0.0836301 -0.023012308 0.66162425
-0.082506105 -0.023011906 0.66161269
-0.081382148 -0.023011504 0.66160113
-0.080258235 -0.023011101 0.66158956
-0.07913436 -0.023010699 0.661578
-0.078010522 -0.023010297 0.66156644
-0.076886721 -0.023009894 0.66155487
-0.075762972 -0.023009496 0.66154337
-0.074639253 -0.023009093 0.66153181
-0.073515572 -0.023008691 0.66152024
-0.072391935 -0.023008289 0.66150868
-0.071268328 -0.023007886 0.66149712
-0.070144773 -0.023007484 0.66148555
-0.069021247 -0.023007082 0.66147399
-0.067897767 -0.023006681 0.66146249
-0.066774324 -0.023006279 0.66145092
-0.065650918 -0.023005877 0.66143936
-0.064527556 -0.023005476 0.6614278
-0.063404225 -0.023005074 0.66141623
-0.062280938 -0.023004672 0.66140467
-0.061157696 -0.023004271 0.66139317
-0.060034487 -0.023003869 0.6613816
-0.058911316 -0.023003466 0.66137004
-0.057788186 -0.023003064 0.66135848
-0.056665093 -0.023002662 0.66134691
-0.055542048 -0.023002261 0.66133541
-0.054419033 -0.023001859 0.66132385
-0.053296059 -0.023001458 0.66131228
-0.052173126 -0.023001056 0.66130072
-0.051050235 -0.023000656 0.66128922
-0.04992738 -0.023000253 0.66127765
-0.048804563 -0.022999851 0.66126609
-0.04768179 -0.022999451 0.66125458
-0.046559051 -0.022999048 0.66124302
-0.045436349 -0.022998646 0.66123146
-0.044313692 -0.022998244 0.66121989
-0.043191072 -0.022997845 0.66120839
-0.042068493 -0.022997443 0.66119683
-0.040945947 -0.02299704 0.66118526
-0.03982345 -0.02299664 0.66117376
-0.038700987 -0.022996238 0.6611622
-0.03757856 -0.022995835 0.66115063
-0.036456179 -0.022995435 0.66113913
-0.035333831 -0.022995032 0.66112757
-0.034211524 -0.02299463 0.661116
-0.033089258 -0.022994231 0.6611045
-0.031967029 -0.022993829 0.66109294
-0.030844843 -0.022993429 0.66108143
-0.029722692 -0.022993026 0.66106987
-0.028600581 -0.022992624 0.66105831
-0.027478512 -0.022992224 0.6610468
-0.026356479 -0.022991821 0.66103524
-0.025234487 -0.022991421 0.66102374
-0.024112532 -0.02299102 0.66101217
-0.02299062 -0.02299062 0.66100067
-0.021868743 -0.022990217 0.66098911
-0.020746907 -0.022989817 0.6609776
-0.019625111 -0.022989415 0.66096604
-0.018503351 -0.022989012 0.66095448
-0.017381635 -0.022988612 0.66094297
-0.016259953 -0.02298821 0.66093141
-0.015138314 -0.022987811 0.6609199
-0.014016712 -0.022987409 0.66090834
-0.012895151 -0.022987008 0.66089684
-0.011773627 -0.022986606 0.66088527
-0.010652144 -0.022986205 0.66087377
-0.0095306989 -0.022985803 0.66086221
-0.0084092943 -0.022985402 0.6608507
-0.007287927 -0.022985 0.66083914
-0.0061666002 -0.022984602 0.66082764
-0.005045312 -0.022984199 0.66081607
-0.0039240634 -0.022983799 0.66080457
-0.0028028532 -0.022983396 0.66079301
-0.0016816827 -0.022982996 0.6607815
-0.00056055107 -0.022982594 0.66076994
0.00056054135 -0.022982193 0.66075844
0.0016815946 -0.022981795 0.66074693
0.0028026088 -0.022981392 0.66073537
0.0039235838 -0.022980992 0.66072387
0.0050445194 -0.022980589 0.6607123
0.0061654164 -0.022980189 0.6607008
0.0072862739 -0.022979787 0.66068923
0.0084070927 -0.022979386 0.66067773
0.0095278723 -0.022978988 0.66066623
0.010648613 -0.022978585 0.66065466
0.011769314 -0.022978185 0.66064316
0.012889977 -0.022977784 0.66063166
0.014010599 -0.022977382 0.66062009
0.015131183 -0.022976981 0.66060859
0.016251728 -0.022976583 0.66059709
0.017372234 -0.022976181 0.66058552
0.018492701 -0.02297578 0.66057402
0.019613128 -0.02297538 0.66056252
0.020733517 -0.022974977 0.66055095
0.021853866 -0.022974577 0.66053945
0.022974176 -0.022974176 0.66052794
0.024094447 -0.022973776 0.66051638
0.02521468 -0.022973375 0.66050488
0.026334874 -0.022972975 0.66049337
0.027455028 -0.022972574 0.66048187
0.028575141 -0.022972172 0.66047031
0.029695218 -0.022971772 0.6604588
0.030815255 -0.022971373 0.6604473
0.031935252 -0.022970973 0.6604358
0.033055209 -0.02297057 0.66042423
0.034175131 -0.02297017 0.66041273
0.035295013 -0.022969769 0.66040123
0.036414854 -0.022969369 0.66038972
0.037534658 -0.02296897 0.66037822
0.038654417 -0.022968568 0.66036665
0.039774142 -0.022968167 0.66035515
0.04089383 -0.022967767 0.66034365
0.042013478 -0.022967367 0.66033214
0.043133084 -0.022966966 0.66032064
0.044252653 -0.022966567 0.66030914
0.045372177 -0.022966165 0.66029757
0.046491668 -0.022965765 0.66028607
0.047611121 -0.022965364 0.66027457
0.048730534 -0.022964964 0.66026306
0.049849909 -0.022964563 0.66025156
0.050969243 -0.022964165 0.66024005
0.052088536 -0.022963764 0.66022855
0.053207789 -0.022963362 0.66021699
0.054327007 -0.022962961 0.66020548
0.055446185 -0.022962561 0.66019398
0.056565326 -0.02296216 0.66018248
0.057591964 -0.022924956 0.65911281
0.058456022 -0.022825684 0.65625864
0.059312627 -0.022727268 0.65342909
0.060161874 -0.022629695 0.6506238
0.061003864 -0.022532959 0.64784253
0.06183869 -0.022437047 0.64508498
0.062666431 -0.022341946 0.64235073
0.063487194 -0.02224765 0.63963962
0.064301036 -0.022154137 0.63695109
0.065238476 -0.022105599 0.63555557
0.066298179 -0.022099392 0.63537711
0.067357279 -0.022093188 0.63519871
0.068415791 -0.022086987 0.63502043
0.069473706 -0.02208079 0.63484228
0.070531033 -0.022074597 0.63466424
0.071587764 -0.022068407 0.63448626
0.072643898 -0.022062222 0.6343084
0.07369861 -0.022055788 0.63412344
0.074747741 -0.022047896 0.63389653
0.075796127 -0.022040009 0.63366979
0.076843768 -0.022032129 0.63344324
0.077890649 -0.022024253 0.6332168
0.078936793 -0.022016384 0.63299054
0.079982184 -0.02200852 0.63276446
0.08102683 -0.022000663 0.63253856
-0.1275862 -0.020995196 0.63458592
-0.12654817 -0.021001611 0.63477981
-0.1255095 -0.02100803 0.63497376
-0.12447021 -0.021014452 0.6351679
-0.12343029 -0.021020878 0.63536215
-0.12238971 -0.021027308 0.63555646
-0.12134851 -0.021033742 0.63575095
-0.12030666 -0.021040179 0.6359455
-0.11926419 -0.021046622 0.63614023
-0.11822106 -0.021053065 0.63633502
-0.11717731 -0.021059517 0.63652998
-0.1161329 -0.021065969 0.63672501
-0.11508787 -0.021072427 0.63692021
-0.11404219 -0.021078888 0.63711554
-0.11299587 -0.021085354 0.63731092
-0.11203253 -0.021107579 0.63798267
-0.11139374 -0.021191981 0.64053375
-0.11074983 -0.021277061 0.64310533
-0.11010072 -0.021362824 0.64569759
-0.10944635 -0.021449286 0.6483109
-0.10878667 -0.021536447 0.65094537
-0.10812161 -0.021624321 0.65360141
-0.10745109 -0.021712914 0.65627915
-0.1067751 -0.021802245 0.65897918
-0.10609357 -0.021892324 0.66170186
-0.10499358 -0.021897057 0.66184491
-0.10386884 -0.021896675 0.66183335
-0.10274414 -0.021896292 0.66182178
-0.10161947 -0.02189591 0.66181022
-0.10049485 -0.021895528 0.66179866
-0.099370271 -0.021895144 0.66178709
-0.098245725 -0.021894762 0.66177553
-0.097121224 -0.021894379 0.66176397
-0.095996752 -0.021893997 0.6617524
-0.094872326 -0.021893615 0.66174084
-0.093747944 -0.021893231 0.66172928
-0.092623591 -0.021892849 0.66171771
-0.091499284 -0.021892466 0.66170615
-0.090375014 -0.021892084 0.66169459
-0.089250781 -0.021891702 0.66168302
-0.088126592 -0.021891318 0.66167146
-0.087002441 -0.021890936 0.6616599
-0.085878327 -0.021890553 0.66164833
-0.084754251 -0.021890171 0.66163677
-0.083630219 -0.021889789 0.66162521
-0.082506225 -0.021889405 0.66161364
-0.081382267 -0.021889023 0.66160208
-0.080258347 -0.02188864 0.66159052
-0.079134479 -0.02188826 0.66157901
-0.078010641 -0.021887878 0.66156745
-0.07688684 -0.021887494 0.66155589
-0.075763084 -0.021887112 0.66154432
-0.074639358 -0.021886731 0.66153276
-0.073515676 -0.021886347 0.6615212
-0.072392039 -0.021885965 0.66150963
-0.071268432 -0.021885581 0.66149807
-0.070144869 -0.021885199 0.66148651
-0.069021352 -0.021884819 0.661475
-0.067897864 -0.021884436 0.66146344
-0.06677442 -0.021884054 0.66145188
-0.065651014 -0.021883672 0.66144031
-0.064527646 -0.021883288 0.66142875
-0.063404314 -0.021882907 0.66141719
-0.062281035 -0.021882525 0.66140568
-0.061157785 -0.021882143 0.66139412
-0.060034573 -0.021881761 0.66138256
-0.058911402 -0.021881377 0.66137099
-0.057788268 -0.021880995 0.66135943
-0.056665182 -0.021880616 0.66134793
-0.055542126 -0.021880232 0.66133636
-0.054419111 -0.02187985 0.6613248
-0.053296138 -0.021879466 0.66131324
-0.052173205 -0.021879086 0.66130173
-0.051050309 -0.021878704 0.66129017
-0.049927451 -0.021878321 0.66127861
-0.048804633 -0.021877939 0.66126704
-0.047681857 -0.021877557 0.66125554
-0.046559118 -0.021877175 0.66124398
-0.045436416 -0.021876793 0.66123241
-0.044313759 -0.021876412 0.66122091
-0.043191135 -0.02187603 0.66120934
-0.042068552 -0.021875648 0.66119778
-0.040946007 -0.021875264 0.66118622
-0.039823506 -0.021874884 0.66117471
-0.038701043 -0.0218745 0.66116315
-0.037578616 -0.02187412 0.66115165
-0.036456231 -0.021873739 0.66114008
-0.035333883 -0.021873355 0.66112852
-0.034211576 -0.021872975 0.66111702
-0.033089306 -0.021872593 0.66110545
-0.031967077 -0.021872209 0.66109389
-0.030844888 -0.021871829 0.66108239
-0.029722735 -0.021871448 0.66107082
-0.028600626 -0.021871066 0.66105932
-0.027478551 -0.021870684 0.66104776
-0.026356518 -0.021870302 0.66103625
-0.025234524 -0.02186992 0.66102469
-0.024112567 -0.021869538 0.66101313
-0.022990653 -0.021869157 0.66100162
-0.021868775 -0.021868775 0.66099006
-0.020746937 -0.021868395 0.66097856
-0.019625138 -0.021868011 0.66096699
-0.018503379 -0.021867631 0.66095549
-0.017381659 -0.021867249 0.66094393
-0.016259979 -0.021866867 0.66093242
-0.015138336 -0.021866485 0.66092086
-0.014016734 -0.021866104 0.66090935
-0.01289517 -0.021865722 0.66089779
-0.011773644 -0.02186534 0.66088623
-0.010652159 -0.021864958 0.66087472
-0.0095307129 -0.021864576 0.66086316
-0.0084093064 -0.021864196 0.66085166
-0.0072879377 -0.021863813 0.66084009
-0.006166609 -0.021863433 0.66082859
-0.005045319 -0.021863051 0.66081703
-0.003924069 -0.021862669 0.66080552
-0.0028028574 -0.021862289 0.66079402
-0.0016816851 -0.021861905 0.66078246
-0.00056055194 -0.021861525 0.66077095
0.0005605421 -0.021861143 0.66075939
0.0016815971 -0.021860762 0.66074789
0.0028026127 -0.02186038 0.66073632
0.0039235894 -0.02186 0.66072482
0.0050445269 -0.021859616 0.66071326
0.0061654258 -0.021859236 0.66070175
0.0072862851 -0.021858856 0.66069025
0.0084071048 -0.021858472 0.66067868
0.0095278863 -0.021858092 0.66066718
0.010648629 -0.021857712 0.66065568
0.011769331 -0.021857329 0.66064411
0.012889995 -0.021856949 0.66063261
0.014010619 -0.021856565 0.66062105
0.015131205 -0.021856185 0.66060954
0.016251752 -0.021855805 0.66059804
0.017372258 -0.021855421 0.66058648
0.018492727 -0.021855041 0.66057497
0.019613158 -0.021854661 0.66056347
0.020733548 -0.02185428 0.66055197
0.021853898 -0.021853898 0.6605404
0.02297421 -0.021853518 0.6605289
0.024094485 -0.021853136 0.66051739
0.025214717 -0.021852754 0.66050583
0.026334912 -0.021852374 0.66049433
0.027455067 -0.021851992 0.66048282
0.028575186 -0.021851612 0.66047132
0.029695261 -0.02185123 0.66045976
0.0308153 -0.021850849 0.66044825
0.031935301 -0.021850469 0.66043675
0.033055261 -0.021850089 0.66042525
0.03417518 -0.021849705 0.66041368
0.035295062 -0.021849325 0.66040218
0.036414906 -0.021848945 0.66039068
0.03753471 -0.021848563 0.66037917
0.038654476 -0.021848183 0.66036767
0.039774202 -0.021847799 0.6603561
0.04089389 -0.021847419 0.6603446
0.042013537 -0.021847039 0.6603331
0.043133147 -0.021846658 0.66032159
0.044252716 -0.021846278 0.66031009
0.045372248 -0.021845898 0.66029859
0.046491735 -0.021845514 0.66028702
0.047611188 -0.021845134 0.66027552
0.048730604 -0.021844754 0.66026402
0.04984998 -0.021844372 0.66025251
0.050969314 -0.021843992 0.66024101
0.052088611 -0.021843612 0.6602295
0.053207871 -0.02184323 0.660218
0.054327089 -0.02184285 0.6602065
0.055446263 -0.021842469 0.66019493
0.056565404 -0.021842087 0.66018343
0.057684507 -0.021841707 0.66017193
0.058674634 -0.021793436 0.65871292
0.059533484 -0.021699121 0.65586221
0.060384929 -0.021605618 0.65303606
0.061229073 -0.021512916 0.65023416
0.062066004 -0.02142101 0.64745623
0.062895805 -0.021329883 0.6447019
0.063718587 -0.021239528 0.64197093
0.064534426 -0.021149937 0.63926297
0.065343402 -0.021061096 0.63657773
0.066313356 -0.021026187 0.6355226
0.067372702 -0.021020282 0.63534415
0.068431452 -0.021014383 0.63516581
0.069489598 -0.021008484 0.63498753
0.070547163 -0.021002591 0.63480937
0.071602836 -0.020996321 0.63461989
0.072653547 -0.020988801 0.63439262
0.073703498 -0.020981288 0.63416553
0.074752703 -0.020973781 0.63393861
0.075801156 -0.020966277 0.63371181
0.076848857 -0.020958779 0.6334852
0.077895813 -0.020951288 0.63325876
0.078942023 -0.020943802 0.6330325
0.079987481 -0.02093632 0.63280636
0.081032194 -0.020928845 0.6325804
-0.12760071 -0.019920785 0.6346581
-0.12656257 -0.019926872 0.63485199
-0.12552379 -0.019932961 0.63504601
-0.12448438 -0.019939058 0.6352402
-0.12344433 -0.019945154 0.63543445
-0.12240364 -0.019951254 0.63562882
-0.12136234 -0.019957362 0.63582337
-0.12032037 -0.019963469 0.63601798
-0.11927778 -0.019969583 0.63621271
-0.11823454 -0.019975698 0.63640755
-0.11719067 -0.01998182 0.63660258
-0.11614615 -0.019987943 0.63679767
-0.11510099 -0.019994071 0.63699287
-0.11405521 -0.020000203 0.63718826
-0.11300877 -0.020006338 0.6373837
-0.11218873 -0.020053057 0.63887215
-0.11154966 -0.020133354 0.64143032
-0.11090547 -0.020214297 0.64400911
-0.11025608 -0.020295894 0.64660871
-0.10960141 -0.020378152 0.64922935
-0.10894143 -0.020461081 0.65187138
-0.10827604 -0.020544684 0.65453494
-0.1076052 -0.020628978 0.65722042
-0.10692891 -0.020713979 0.6599285
-0.10611852 -0.020774527 0.66185749
-0.10499375 -0.020774163 0.66184592
-0.103869 -0.0207738 0.66183436
-0.10274429 -0.020773435 0.66182274
-0.10161962 -0.020773072 0.66181117
-0.100495 -0.020772709 0.66179961
-0.099370413 -0.020772347 0.66178805
-0.098245867 -0.020771984 0.66177648
-0.097121358 -0.020771621 0.66176492
-0.095996894 -0.020771258 0.66175336
-0.094872467 -0.020770894 0.66174179
-0.093748078 -0.020770531 0.66173023
-0.092623726 -0.020770168 0.66171867
-0.091499418 -0.020769807 0.6617071
-0.09037514 -0.020769443 0.66169554
-0.089250907 -0.02076908 0.66168398
-0.088126719 -0.020768717 0.66167241
-0.08700256 -0.020768354 0.66166085
-0.085878447 -0.02076799 0.66164929
-0.084754385 -0.020767629 0.66163778
-0.083630346 -0.020767268 0.66162622
-0.082506351 -0.020766905 0.66161466
-0.081382394 -0.020766541 0.66160309
-0.080258474 -0.020766178 0.66159153
-0.079134591 -0.020765815 0.66157997
-0.078010753 -0.020765452 0.6615684
-0.076886952 -0.020765088 0.66155684
-0.075763188 -0.020764727 0.66154528
-0.074639469 -0.020764364 0.66153371
-0.073515788 -0.020764001 0.66152215
-0.072392143 -0.020763637 0.66151059
-0.071268544 -0.020763276 0.66149908
-0.070144981 -0.020762913 0.66148752
-0.069021448 -0.02076255 0.66147596
-0.067897968 -0.020762188 0.66146439
-0.066774517 -0.020761825 0.66145283
-0.065651111 -0.020761462 0.66144127
-0.064527743 -0.020761099 0.6614297
-0.063404411 -0.020760737 0.6614182
-0.062281124 -0.020760374 0.66140664
-0.061157871 -0.020760011 0.66139507
-0.060034659 -0.02075965 0.66138351
-0.058911487 -0.020759286 0.66137195
-0.057788357 -0.020758925 0.66136044
-0.056665264 -0.020758562 0.66134888
-0.055542208 -0.020758199 0.66133732
-0.05441919 -0.020757835 0.66132575
-0.05329622 -0.020757474 0.66131425
-0.052173279 -0.020757113 0.66130269
-0.051050384 -0.020756749 0.66129112
-0.049927521 -0.020756386 0.66127956
-0.048804708 -0.020756025 0.66126806
-0.047681928 -0.020755662 0.66125649
-0.046559185 -0.020755298 0.66124493
-0.045436487 -0.020754937 0.66123343
-0.044313822 -0.020754576 0.66122186
-0.043191198 -0.020754213 0.6612103
-0.042068612 -0.020753849 0.66119874
-0.04094607 -0.020753488 0.66118723
-0.039823566 -0.020753125 0.66117567
-0.038701098 -0.020752762 0.6611641
-0.037578672 -0.0207524 0.6611526
-0.036456283 -0.020752039 0.66114104
-0.035333935 -0.020751677 0.66112953
-0.034211624 -0.020751314 0.66111797
-0.033089355 -0.020750951 0.66110641
-0.031967126 -0.02075059 0.6610949
-0.030844932 -0.020750226 0.66108334
-0.02972278 -0.020749865 0.66107184
-0.028600667 -0.020749504 0.66106027
-0.027478591 -0.020749141 0.66104871
-0.026356557 -0.020748779 0.66103721
-0.02523456 -0.020748416 0.66102564
-0.024112605 -0.020748055 0.66101414
-0.022982033 -0.020739883 0.66075379
-0.021831518 -0.020711953 0.65986395
-0.020684116 -0.020684116 0.65897709
-0.019604804 -0.020725079 0.66028214
-0.018503407 -0.020746244 0.66095644
-0.017381685 -0.020745881 0.66094488
-0.016260002 -0.02074552 0.66093338
-0.015138358 -0.020745156 0.66092181
-0.014016754 -0.020744795 0.66091031
-0.012895188 -0.020744434 0.66089875
-0.011773663 -0.020744072 0.66088724
-0.010652175 -0.020743709 0.66087568
-0.0095307278 -0.020743348 0.66086417
-0.0084093185 -0.020742984 0.66085261
-0.0072879489 -0.020742623 0.66084111
-0.0061666179 -0.02074226 0.66082954
-0.0050453269 -0.0207419 0.66081804
-0.0039240746 -0.020741537 0.66080648
-0.0028028616 -0.020741176 0.66079497
-0.0016816875 -0.020740813 0.66078341
-0.00056055275 -0.020740451 0.66077191
0.00056054292 -0.020740088 0.66076034
0.0016815995 -0.020739727 0.66074884
0.0028026171 -0.020739367 0.66073734
0.0039235954 -0.020739004 0.66072577
0.0050445348 -0.020738643 0.66071427
0.0061654346 -0.020738279 0.66070271
0.0072862958 -0.020737918 0.6606912
0.0084071169 -0.020737555 0.66067964
0.0095279003 -0.020737194 0.66066813
0.010648645 -0.020736834 0.66065663
0.011769348 -0.020736471 0.66064507
0.012890014 -0.020736109 0.66063356
0.014010641 -0.020735748 0.66062206
0.015131227 -0.020735385 0.6606105
0.016251776 -0.020735024 0.66059899
0.017372286 -0.020734662 0.66058749
0.018492755 -0.020734301 0.66057593
0.019613186 -0.020733939 0.66056442
0.020733578 -0.020733578 0.66055292
0.021853929 -0.020733215 0.66054136
0.022974243 -0.020732854 0.66052985
0.024094518 -0.020732492 0.66051835
0.025214754 -0.020732131 0.66050684
0.026334949 -0.02073177 0.66049528
0.027455108 -0.020731408 0.66048378
0.028575227 -0.020731047 0.66047227
0.029695306 -0.020730685 0.66046077
0.030815344 -0.020730322 0.66044921
0.031935345 -0.020729961 0.6604377
0.033055309 -0.0207296 0.6604262
0.034175232 -0.02072924 0.6604147
0.035295114 -0.020728877 0.66040313
0.036414959 -0.020728515 0.66039163
0.037534766 -0.020728154 0.66038013
0.038654532 -0.020727793 0.66036862
0.039774261 -0.020727431 0.66035712
0.040893946 -0.02072707 0.66034555
0.042013597 -0.020726709 0.66033405
0.04313321 -0.020726347 0.66032255
0.044252779 -0.020725986 0.66031104
0.045372315 -0.020725625 0.66029954
0.046491809 -0.020725263 0.66028804
0.047611259 -0.0207249 0.66027647
0.048730675 -0.020724541 0.66026497
0.04985005 -0.020724179 0.66025347
0.050969388 -0.020723818 0.66024196
0.052088689 -0.020723457 0.66023046
0.053207949 -0.020723095 0.66021895
0.054327168 -0.020722734 0.66020745
0.055446349 -0.020722372 0.66019595
0.056565493 -0.020722013 0.66018444
0.057684589 -0.02072165 0.66017288
0.058803655 -0.020721288 0.66016138
0.059755996 -0.020663289 0.65831357
0.060609646 -0.020573916 0.65546626
0.06145595 -0.020485317 0.65264356
0.062294994 -0.020397475 0.649845
0.063126869 -0.020310383 0.64707035
0.063951679 -0.020224035 0.64431936
0.064769499 -0.020138416 0.64159161
0.06558042 -0.020053517 0.63888681
0.066384539 -0.019969333 0.63620478
0.067388132 -0.019946886 0.63548964
0.068447113 -0.019941285 0.63531119
0.069503784 -0.019935193 0.63511711
0.070556067 -0.019928049 0.63488948
0.07160759 -0.01992091 0.63466203
0.072658367 -0.019913776 0.63443476
0.0737084 -0.019906648 0.63420767
0.074757665 -0.019899523 0.63398069
0.075806193 -0.019892404 0.6337539
0.076853953 -0.019885289 0.63352722
0.077900976 -0.019878181 0.63330072
0.078947254 -0.019871078 0.63307446
0.079992779 -0.019863978 0.63284826
0.081037559 -0.019856885 0.6326223
0.082081594 -0.019849798 0.63239646
-0.12761521 -0.01884613 0.63473028
-0.12657696 -0.018851889 0.63492423
-0.12553808 -0.01885765 0.63511831
-0.12449855 -0.018863417 0.6353125
-0.12345839 -0.018869186 0.63550681
-0.12241759 -0.018874958 0.63570124
-0.12137616 -0.018880736 0.63589579
-0.12033408 -0.018886516 0.63609046
-0.11929137 -0.018892299 0.63628525
-0.11824802 -0.018898087 0.63648015
-0.11720403 -0.018903878 0.63667518
-0.11615941 -0.01890967 0.63687032
-0.11511414 -0.018915469 0.63706559
-0.11406823 -0.018921269 0.63726097
-0.11302167 -0.018927075 0.63745648
-0.11234535 -0.018995591 0.63976407
-0.11170602 -0.01907176 0.64232939
-0.11106155 -0.019148543 0.64491546
-0.11041187 -0.019225948 0.64752239
-0.10975691 -0.019303979 0.65015048
-0.10909661 -0.019382646 0.65279996
-0.10843092 -0.01946196 0.65547121
-0.1077598 -0.019541932 0.65816462
-0.10708318 -0.019622572 0.66088057
-0.10611868 -0.019651607 0.66185844
-0.10499389 -0.019651264 0.66184688
-0.10386915 -0.019650919 0.66183531
-0.10274445 -0.019650577 0.66182375
-0.10161978 -0.019650234 0.66181219
-0.10049515 -0.019649891 0.66180062
-0.099370569 -0.019649547 0.66178906
-0.098246016 -0.019649204 0.6617775
-0.097121507 -0.019648861 0.66176593
-0.095997043 -0.019648517 0.66175437
-0.094872609 -0.019648174 0.66174281
-0.093748219 -0.019647831 0.66173124
-0.092623867 -0.019647487 0.66171968
-0.091499552 -0.019647144 0.66170812
-0.090375282 -0.019646801 0.66169655
-0.089251049 -0.019646456 0.66168499
-0.088126853 -0.019646114 0.66167343
-0.087002695 -0.019645771 0.66166186
-0.085878581 -0.019645426 0.6616503
-0.084754504 -0.019645084 0.66163874
-0.083630465 -0.019644741 0.66162717
-0.08250647 -0.019644396 0.66161561
-0.081382506 -0.019644054 0.66160405
-0.080258586 -0.019643711 0.66159248
-0.07913471 -0.019643366 0.66158092
-0.078010865 -0.019643024 0.66156936
-0.076887064 -0.019642681 0.66155779
-0.0757633 -0.019642336 0.66154623
-0.074639581 -0.019641995 0.66153473
-0.073515899 -0.019641653 0.66152316
-0.072392255 -0.019641308 0.6615116
-0.071268648 -0.019640965 0.66150004
-0.070145078 -0.019640623 0.66148847
-0.069021553 -0.019640278 0.66147691
-0.067898065 -0.019639935 0.66146535
-0.066774614 -0.019639593 0.66145378
-0.065651208 -0.01963925 0.66144228
-0.064527839 -0.019638907 0.66143072
-0.063404508 -0.019638564 0.66141915
-0.062281214 -0.01963822 0.66140759
-0.06115796 -0.019637877 0.66139603
-0.060034752 -0.019637536 0.66138452
-0.058911577 -0.019637192 0.66137296
-0.057788443 -0.019636849 0.6613614
-0.056665346 -0.019636506 0.66134983
-0.055542286 -0.019636162 0.66133827
-0.054419275 -0.019635821 0.66132677
-0.053296294 -0.019635478 0.6613152
-0.052173357 -0.019635133 0.66130364
-0.051050454 -0.019634791 0.66129208
