# .PCD v0.7 - Point Cloud Data file format
VERSION 0.7
FIELDS x y z
SIZE 4 4 4
TYPE F F F
COUNT 1 1 1
WIDTH 639
HEIGHT 1
VIEWPOINT 0 0 0 1 0 0 0
POINTS 639
DATA ascii
-0.04206552 -0.25739038 0.67109227
-0.035383344 -0.25900057 0.67109233
-0.027896086 -0.25960436 0.67109251
-0.020068098 -0.25946203 0.67109239
-0.012372952 -0.2587314 0.67109197
-0.0065470366 -0.25704235 0.67109191
-0.049928285 -0.25100774 0.67109203
-0.043836694 -0.25220317 0.67109245
-0.03586638 -0.25220323 0.67109215
-0.027896071 -0.2522032 0.67109197
-0.019925758 -0.25220314 0.67109168
-0.011955456 -0.25220308 0.6710915
-0.0042128749 -0.25192478 0.6710915
0.0020874601 -0.25030544 0.67109168
-0.056740981 -0.24214543 0.67109185
-0.051661622 -0.2441119 0.67109156
-0.043836668 -0.244233 0.67109156
-0.035866685 -0.24423535 0.67109823
-0.028050417 -0.24519077 0.67110258
-0.019686043 -0.24507181 0.67109144
-0.011955452 -0.24423292 0.67109138
-0.0039851503 -0.24423286 0.67109126
0.0037871304 -0.24403471 0.67109114
0.0089950506 -0.24172775 0.67109126
-0.058297064 -0.23592098 0.67109168
-0.051806957 -0.23626252 0.67109138
-0.043836657 -0.23626244 0.67109126
-0.037995826 -0.23788251 0.67116505
-0.010247607 -0.23740253 0.67109537
-0.0039851493 -0.23626231 0.6710912
0.0039851489 -0.23626238 0.67109114
0.011069856 -0.23572463 0.67109108
-0.058988973 -0.22811702 0.6710912
-0.051806938 -0.2282922 0.6710912
-0.044405952 -0.22829211 0.67109114
-0.0085396022 -0.23170787 0.67109108
-0.0039851489 -0.22829209 0.67109096
0.0039851479 -0.22829197 0.67109096
0.011955436 -0.22829187 0.67109096
0.017888209 -0.22715326 0.67109078
-0.059706062 -0.22025053 0.67109108
-0.051806923 -0.22032173 0.67109102
-0.044059392 -0.22017317 0.67109108
-0.039282158 -0.21747513 0.67109084
-0.0092512285 -0.21818669 0.6710906
-0.0039851461 -0.22032164 0.6710909
0.0039851461 -0.22032158 0.67109072
0.011955433 -0.22032158 0.67109078
0.019727701 -0.22012354 0.67109066
0.024935609 -0.21781655 0.67109036
-0.064473979 -0.2119244 0.6710909
-0.0597772 -0.2123514 0.67109096
-0.051806897 -0.21235143 0.67109096
-0.043836605 -0.21235143 0.6710909
-0.036498867 -0.21152896 0.67109084
-0.028370431 -0.20940982 0.67109054
-0.018962275 -0.20963608 0.67109042
-0.011483323 -0.21187918 0.6710906
-0.0039851419 -0.21235114 0.6710906
0.0039851414 -0.21235123 0.67109066
0.011955429 -0.21235116 0.67109025
0.019925712 -0.21235108 0.67109025
0.026826389 -0.21169554 0.67109007
-0.065114424 -0.20402519 0.67109072
-0.059777182 -0.204381 0.6710909
-0.051806882 -0.20438099 0.67109066
-0.043836582 -0.20438097 0.67109066
-0.035866287 -0.20438093 0.67109066
-0.027896002 -0.20438091 0.6710906
-0.019925712 -0.20438091 0.67109042
-0.011955427 -0.20438085 0.67108989
-0.00398514 -0.20438087 0.67109001
0.00398514 -0.20438087 0.67108971
0.011955421 -0.20438088 0.67108959
0.019925704 -0.20438078 0.67108965
0.027895978 -0.20438081 0.67108965
0.033660196 -0.20302865 0.67108983
-0.065754876 -0.19612594 0.6710903
-0.059777148 -0.19641069 0.6710906
-0.05180686 -0.19641063 0.67109048
-0.043836568 -0.19641063 0.67109001
-0.035866279 -0.19641054 0.67109013
-0.027895993 -0.19641055 0.67108965
-0.019925704 -0.19641051 0.67108965
-0.01195542 -0.19641048 0.67108965
-0.0039851391 -0.19641045 0.67108959
0.0039851391 -0.19641045 0.67108959
0.011955417 -0.19641037 0.67108959
0.019925695 -0.19641048 0.67108935
0.027895967 -0.19641039 0.67108935
0.035587922 -0.19618264 0.67108923
0.040800218 -0.19337404 0.67108935
-0.066314958 -0.18821992 0.67109025
-0.059777115 -0.18844026 0.67108965
-0.051806837 -0.1884402 0.67108965
-0.043836549 -0.18844025 0.67108965
-0.035866261 -0.18844022 0.67108959
-0.027895976 -0.18844019 0.67108947
-0.019925695 -0.18844017 0.67108941
-0.011955417 -0.1884402 0.67108935
-0.0039851381 -0.1884402 0.67108935
0.0039851381 -0.18844014 0.67108935
0.011955413 -0.18844019 0.67108923
0.019925686 -0.18844008 0.67108923
0.027895959 -0.18844011 0.67108923
0.035866231 -0.18844007 0.67108917
0.042546075 -0.18771887 0.67108917
-0.066959113 -0.1802948 0.67108965
-0.0597771 -0.18046987 0.67108959
-0.051806811 -0.18046989 0.67108941
-0.043836527 -0.18046983 0.67108947
-0.035866249 -0.18046977 0.67108923
-0.027895965 -0.18046978 0.67108935
-0.019925689 -0.18046981 0.67108935
-0.011955413 -0.18046978 0.67108923
-0.0039851372 -0.18046978 0.67108917
0.0039851363 -0.18046978 0.67108917
0.011955408 -0.18046972 0.67108917
0.01992568 -0.18046971 0.67108911
0.027895946 -0.18046971 0.67108911
0.03586622 -0.18046969 0.67108911
0.043836478 -0.18046971 0.67108899
0.049448196 -0.1790057 0.67108876
-0.067602001 -0.17237844 0.67108935
-0.059777081 -0.17249964 0.67108923
-0.051806789 -0.17249958 0.67108923
-0.043836515 -0.17249955 0.67108923
-0.035866234 -0.17249948 0.67108917
-0.027895959 -0.17249952 0.67108917
-0.020408768 -0.17367293 0.67109054
-0.012183296 -0.17523403 0.6710965
-0.0037574531 -0.17524399 0.67113501
0.0039851796 -0.17478484 0.67112076
0.011955406 -0.17477663 0.67108905
0.020320743 -0.174303 0.67112052
0.028017063 -0.17264478 0.67108905
0.035866201 -0.1724993 0.67108887
0.043836467 -0.17249933 0.67108876
0.051345855 -0.17211975 0.6710887
0.05636115 -0.16965276 0.6710884
-0.072301775 -0.16395992 0.67108935
-0.067747332 -0.1645292 0.67108917
-0.05977704 -0.16452917 0.67108917
-0.05180677 -0.16452917 0.67108917
-0.043836497 -0.16452922 0.67108917
-0.036349267 -0.1657023 0.67108911
-0.029667119 -0.16731244 0.67108905
0.030176636 -0.16731347 0.67116606
0.036452778 -0.16530675 0.6711235
0.043836445 -0.16452903 0.6710887
0.051806692 -0.164529 0.67108846
0.058174469 -0.16389637 0.6710881
-0.072942212 -0.15549146 0.67108911
-0.067747295 -0.15598957 0.67108911
-0.059777021 -0.15598957 0.67108905
-0.051868856 -0.15606202 0.67108905
-0.04603662 -0.15819931 0.67114925
0.044975035 -0.1585962 0.67108816
0.052096918 -0.15629072 0.67108774
0.059650421 -0.15586281 0.6710878
0.064616002 -0.15285812 0.67108774
-0.073638342 -0.14720242 0.67108893
-0.067747273 -0.1474499 0.67108893
-0.059777007 -0.14744991 0.67108887
-0.053386532 -0.14829159 0.67113173
0.054023951 -0.14828868 0.67108756
0.059776921 -0.14744969 0.67108738
0.065849476 -0.14688037 0.67108744
-0.074285068 -0.13925926 0.67108858
-0.06774725 -0.13947968 0.6710887
-0.060304623 -0.13989618 0.67108864
-0.055222545 -0.14289545 0.67108846
0.055222467 -0.14289525 0.6710875
0.060200546 -0.13977067 0.67108732
0.067323454 -0.1391881 0.67108727
0.072301544 -0.13606353 0.67108715
-0.074578881 -0.13150933 0.6710884
-0.067747198 -0.13150933 0.67108834
-0.062474057 -0.13297039 0.67115027
0.061995607 -0.13235115 0.67110312
0.067747101 -0.13150904 0.67108715
0.073297791 -0.13051279 0.67108697
-0.074578844 -0.123539 0.6710878
-0.067747191 -0.12353902 0.67108768
0.06321916 -0.12700786 0.6713683
0.068051487 -0.12369213 0.67109525
0.07419917 -0.12334898 0.67108667
-0.074578822 -0.11556869 0.67108756
-0.067747161 -0.1155687 0.67108738
0.06831634 -0.11556846 0.67108661
0.07457868 -0.11556849 0.67108655
-0.074578777 -0.10759839 0.67108727
-0.068051524 -0.1077515 0.67109525
0.067894585 -0.10748081 0.6711089
0.074578635 -0.10759821 0.67108589
-0.074107595 -0.099745899 0.67108721
-0.068316415 -0.099628098 0.67108721
0.067746982 -0.099627897 0.67108566
0.074578598 -0.099627897 0.67108566
-0.073804468 -0.091931075 0.67108697
-0.067818232 -0.091586657 0.67108703
-0.062813103 -0.089570343 0.67108661
0.063192539 -0.088241838 0.6710856
0.067746952 -0.091657631 0.67108542
0.074578576 -0.091657676 0.67108548
-0.072681017 -0.085774988 0.67108661
-0.067747042 -0.083687529 0.67108679
-0.06118108 -0.083156176 0.67108643
0.061558869 -0.082746804 0.67108536
0.067746937 -0.08368738 0.67108536
0.074578553 -0.083687387 0.67108536
-0.066608414 -0.076085642 0.67108625
-0.05984794 -0.075646125 0.67108583
-0.054842815 -0.073629797 0.67108607
0.05457164 -0.073439933 0.67108506
0.059847858 -0.075645961 0.6710853
0.067746893 -0.075717151 0.67108518
0.073945962 -0.075843632 0.67108524
-0.065063141 -0.06856028 0.67108589
-0.059776757 -0.067746967 0.67108554
-0.053210795 -0.067215636 0.67108566
0.052575778 -0.067162201 0.67108512
0.059776656 -0.06774687 0.67108518
0.067746885 -0.06774687 0.67108506
0.073382959 -0.067917667 0.67108488
-0.05926165 -0.060047843 0.67108548
-0.051806495 -0.059776716 0.67108542
-0.044491816 -0.058707114 0.67108542
-0.038370948 -0.056816332 0.67108536
0.038712494 -0.056360837 0.6710847
0.044848297 -0.058469374 0.67108464
0.051806431 -0.059776623 0.67108488
0.059776638 -0.059776653 0.67108488
0.067746855 -0.059776619 0.67108488
0.072775684 -0.060251046 0.67108446
-0.057499498 -0.052878104 0.67108536
-0.051806469 -0.051806454 0.6710853
-0.043836243 -0.051806476 0.6710853
-0.036064032 -0.051608443 0.6710853
-0.029034385 -0.049768955 0.67108518
0.022772051 -0.048390605 0.67108452
0.02858882 -0.049875751 0.67108446
0.036093701 -0.051528104 0.67108482
0.043836195 -0.051806401 0.67108488
0.051806405 -0.051806405 0.67108458
0.059776619 -0.051806405 0.67108428
0.067746826 -0.051806401 0.67108411
0.072301231 -0.053514298 0.67108434
-0.050863039 -0.044421799 0.67108518
-0.043836225 -0.043836214 0.67108518
-0.035865996 -0.043836229 0.67108518
-0.027895771 -0.043836214 0.67108506
-0.020188302 -0.043077137 0.67108494
-0.011955329 -0.042697601 0.67108482
-0.0039851093 -0.042697582 0.67108476
0.0038673221 -0.042226449 0.67108458
0.012073111 -0.042226437 0.67108458
0.020153258 -0.043557867 0.67108452
0.027895754 -0.04383618 0.67108434
0.035865966 -0.043836176 0.67108411
0.043836176 -0.043836191 0.67108393
0.051806383 -0.043836161 0.67108387
0.059776593 -0.043836154 0.67108387
0.06744317 -0.043987982 0.67108381
-0.04884607 -0.038370918 0.67108476
-0.043638188 -0.036064006 0.67108494
-0.035865985 -0.035865985 0.67108494
-0.027895762 -0.035865981 0.67108488
-0.01992554 -0.035865977 0.67108482
-0.011955325 -0.035865977 0.67108434
-0.0039851074 -0.035865963 0.67108417
0.0039851069 -0.035865963 0.67108405
0.011955322 -0.035865963 0.67108393
0.019925531 -0.035865955 0.67108387
0.027895745 -0.035865948 0.67108387
0.035865951 -0.035865944 0.67108381
0.043836154 -0.035865948 0.67108363
0.05180636 -0.035865944 0.67108375
0.059776559 -0.035865951 0.67108363
0.066877842 -0.03604573 0.67108357
-0.041884299 -0.028871698 0.6710844
-0.03586597 -0.02789575 0.67108428
-0.027895752 -0.027895747 0.67108393
-0.019925533 -0.027895743 0.67108393
-0.01195532 -0.027895743 0.67108393
-0.003985106 -0.027895754 0.67108387
0.0039851055 -0.027895737 0.67108381
0.011955316 -0.027895747 0.67108381
0.019925524 -0.027895737 0.67108363
0.02789573 -0.027895721 0.67108363
0.035865936 -0.027895723 0.67108357
0.043836147 -0.027895723 0.67108363
0.051806342 -0.027895723 0.67108351
0.059776541 -0.027895715 0.67108351
0.066228606 -0.028085487 0.67108345
-0.035096634 -0.020510219 0.67108399
-0.027895743 -0.019925529 0.67108381
-0.019925524 -0.019925522 0.67108363
-0.011955314 -0.019925527 0.67108375
-0.0039851042 -0.019925527 0.67108363
0.0039851037 -0.019925518 0.67108357
0.01195531 -0.019925524 0.67108357
0.019925518 -0.01992552 0.67108357
0.027895723 -0.019925522 0.67108351
0.035865925 -0.019925516 0.67108339
0.043836117 -0.019925509 0.67108339
0.05180632 -0.019925509 0.67108333
0.059776526 -0.019925512 0.67108333
0.065573022 -0.020080769 0.67108339
-0.033100765 -0.014232517 0.67108387
-0.027824566 -0.012026475 0.67108351
-0.019925518 -0.011955313 0.67108357
-0.01195531 -0.01195531 0.67108357
-0.0039851032 -0.011955305 0.67108339
0.0039851023 -0.01195531 0.67108351
0.011955305 -0.011955308 0.67108339
0.019776996 -0.012178071 0.67108339
0.028025096 -0.012343463 0.67108339
0.035865907 -0.0119553 0.67108333
0.043836098 -0.011955301 0.67108327
0.051806293 -0.011955298 0.67108327
0.0597765 -0.011955298 0.67108315
0.06490019 -0.011955298 0.67108291
-0.026113562 -0.0049256859 0.67108345
-0.019925511 -0.0039851032 0.67108339
-0.011955305 -0.0039851009 0.67108333
-0.0039851014 -0.0039851004 0.67108333
0.0039851004 -0.0039851014 0.67108333
0.010926889 -0.0049033267 0.67108327
0.017079003 -0.007400902 0.67108321
0.037099835 -0.0054083993 0.67109138
0.043836083 -0.0039850995 0.67108303
0.051806271 -0.0039850981 0.67108303
0.05977647 -0.0039850972 0.67108297
0.064330868 -0.0045543979 0.67108274
-0.024479909 0.0005693002 0.67108327
-0.019254019 0.0035179812 0.67108333
-0.011955298 0.0039850995 0.67108315
-0.0039850995 0.0039850995 0.67108315
0.003985099 0.0039850986 0.67108309
0.0089190314 0.00094883313 0.67108297
0.044224221 0.003855709 0.67108274
0.051806256 0.0039850953 0.67108274
0.059631098 0.0038639668 0.67108232
-0.017306715 0.010133537 0.67108291
-0.011884131 0.01188413 0.67108303
-0.0039850976 0.011955292 0.67108297
0.0039850967 0.011955297 0.67108297
0.0088241436 0.014517138 0.6710825
0.044224203 0.012084674 0.67108196
0.051806238 0.011955286 0.67108196
0.058907498 0.011775509 0.67108202
-0.01037877 0.019093426 0.6710825
-0.0039850953 0.019925484 0.67108214
0.0039850948 0.019925484 0.67108202
0.011092713 0.020822557 0.67108214
0.016889211 0.022961736 0.6710822
0.030752754 0.023349464 0.67131782
0.036878213 0.021232942 0.67108768
0.043836027 0.019925466 0.67108178
0.051806211 0.019925464 0.67108172
0.057926178 0.019261288 0.67108178
-0.0085394904 0.024479873 0.67108232
-0.0033136129 0.027428554 0.67108196
0.003985093 0.027895665 0.67108178
0.011955285 0.027895644 0.67108172
0.019925466 0.027895642 0.67108172
0.027895648 0.027895652 0.67108172
0.035865832 0.027895648 0.6710816
0.043836016 0.027895644 0.6710816
0.051345337 0.027516112 0.67108154
0.056360587 0.02504915 0.67108172
-0.0014801775 0.032905485 0.6710819
0.0045706569 0.034922432 0.67108172
0.011955276 0.035865828 0.6710816
0.01992546 0.03586584 0.6710816
0.027895641 0.035865821 0.67108154
0.035865828 0.035865825 0.67108154
0.043437492 0.0352396 0.67108154
0.049528982 0.033588622 0.67108148
0.013093873 0.041314818 0.67108154
0.02017297 0.041756812 0.67108154
0.027895633 0.04212809 0.67108148
0.035026841 0.04161872 0.67108148
-0.033370961 -0.24047482 0.6758976
-0.028379092 -0.24250466 0.67580104
-0.020075724 -0.24232559 0.67614633
-0.015473477 -0.2401216 0.67555261
-0.040512487 -0.23223355 0.67261362
-0.037444558 -0.23678719 0.67608327
-0.011775856 -0.23671852 0.67590684
-0.040826771 -0.23115712 0.67783153
-0.0086067151 -0.23122966 0.6763652
-0.025240712 -0.1686582 0.67623842
-0.020078126 -0.17127845 0.67623085
-0.012048843 -0.17423649 0.67626107
-0.0042727669 -0.17401545 0.67493778
0.0044993917 -0.17354238 0.67701524
0.012037767 -0.1731361 0.67580372
0.020051578 -0.17225303 0.67528236
0.025804454 -0.16935658 0.675973
-0.041276064 -0.16051979 0.67578816
-0.036116723 -0.16313832 0.67578024
-0.029261604 -0.16661745 0.67633939
0.029844807 -0.16672418 0.67654121
0.03595461 -0.16274349 0.67604929
-0.048687935 -0.15236315 0.67520797
-0.04529589 -0.15725379 0.67586982
0.044144478 -0.1574076 0.67579228
0.049407009 -0.15371697 0.67563069
-0.051820576 -0.14755479 0.67621982
0.052629411 -0.14787316 0.67634779
-0.057917383 -0.13819687 0.67596388
-0.055188369 -0.14238557 0.67625099
0.055471722 -0.14227282 0.67762107
0.057301372 -0.13866785 0.67546028
-0.061546531 -0.132451 0.67524809
0.060764216 -0.13184477 0.67573386
-0.063563436 -0.12368572 0.67502439
0.063651741 -0.12615529 0.67596209
0.064983144 -0.12248722 0.67788708
-0.063900597 -0.11743765 0.6786049
0.064791188 -0.11582496 0.67588472
-0.064506859 -0.10617818 0.67291862
0.064518511 -0.1107666 0.67304021
-0.064848356 -0.099849679 0.67648113
0.063883811 -0.098992661 0.67842674
0.063547194 -0.092748076 0.67485189
0.05437018 -0.074973613 0.67464024
0.028679477 -0.0086043701 0.67618096
0.031650849 -0.0074811094 0.67835611
0.03680525 -0.0034550964 0.67797631
0.039606642 0.00057400932 0.67663431
0.040773489 0.0028713725 0.67694694
0.039352346 0.015398744 0.67228997
0.040779263 0.013210184 0.67704278
0.015555975 0.021317447 0.67915446
0.018926596 0.023514863 0.67607313
0.037296321 0.018552361 0.67638254
-0.033514969 -0.24040067 0.68351209
-0.028172873 -0.24256508 0.68362695
-0.020543946 -0.24238496 0.68409193
-0.015668526 -0.24024929 0.68406832
-0.040155064 -0.23278184 0.68600351
-0.037342273 -0.23694685 0.68368804
-0.012398642 -0.23740242 0.68423659
-0.041071866 -0.22733872 0.68190068
-0.00872334 -0.23145771 0.68553025
-0.025716966 -0.16841595 0.68379283
-0.020307278 -0.17116222 0.68394953
-0.011933683 -0.17427246 0.68494904
-0.0040618083 -0.17400381 0.68371868
0.0034156127 -0.17360026 0.68339545
0.012198664 -0.17312668 0.6848377
0.020303365 -0.17219961 0.68379438
0.026126267 -0.16914628 0.68440336
-0.041223608 -0.16054574 0.68445128
-0.03630567 -0.16304176 0.68433851
-0.029579308 -0.16645564 0.68368226
0.030170167 -0.16651167 0.6839152
0.036343526 -0.16248961 0.68366998
0.040148128 -0.16001067 0.68588501
-0.048157871 -0.15317535 0.68394983
-0.045137018 -0.15748033 0.68455034
0.044098005 -0.15743734 0.68398285
0.049082406 -0.15398142 0.68391907
-0.051193107 -0.14851688 0.68363309
0.052516866 -0.14809363 0.68459266
-0.057457257 -0.13890211 0.68414122
-0.054770518 -0.14302595 0.68442774
0.055171497 -0.14286381 0.68458325
0.05737675 -0.13851893 0.68319815
-0.061575927 -0.13238499 0.68418235
0.060674321 -0.13202146 0.68377644
-0.063480772 -0.12521228 0.68651628
0.063217267 -0.12701094 0.68366653
0.06438601 -0.12470808 0.68375993
-0.064099014 -0.11376063 0.68071204
0.064671971 -0.11361376 0.68679672
-0.064413607 -0.10793088 0.68405294
0.064361408 -0.10785245 0.68349862
-0.06470181 -0.10259 0.68711364
0.064087495 -0.10277125 0.6805898
-0.062422644 -0.090425327 0.68769121
0.063476101 -0.091431379 0.68646568
-0.059349149 -0.084369786 0.68586415
-0.056288704 -0.078339949 0.6840449
-0.054461271 -0.074739598 0.68295574
0.052577693 -0.072222106 0.68107545
-0.051427796 -0.068763554 0.68113953
0.050744511 -0.069409154 0.68755096
0.02671228 -0.0087111127 0.68456936
0.038427226 -0.0017464133 0.68632317
0.04109747 0.0050040609 0.68619508
0.039953835 0.014476026 0.68256569
0.04108239 0.010413082 0.6820755
0.012154298 0.019099612 0.68225336
0.020413846 0.023913361 0.68753034
0.030645309 0.023128875 0.68159604
0.035883684 0.019673899 0.68219292
-0.032724824 -0.24080053 0.69131881
-0.027999902 -0.24261947 0.6917724
-0.019985922 -0.24230753 0.69160295
-0.015828259 -0.24035355 0.69104207
-0.040474996 -0.23229012 0.69146913
-0.037059043 -0.2371854 0.69182426
-0.012436684 -0.23748302 0.69215703
-0.040718142 -0.23191638 0.69562304
-0.0088190269 -0.23164481 0.69304985
-0.025240347 -0.16865826 0.69193071
-0.019950109 -0.17134403 0.6917128
-0.01298005 -0.1740935 0.69201183
-0.0038429738 -0.17399248 0.69273287
0.0041028671 -0.173563 0.69120276
0.012994375 -0.17308311 0.69266868
0.019809796 -0.17242752 0.69242054
0.025932323 -0.16927204 0.69249535
-0.040910367 -0.16070412 0.69221908
-0.035489555 -0.16345538 0.69196892
-0.029329251 -0.16658239 0.69143778
0.029931873 -0.16666633 0.69178933
0.035805963 -0.16283925 0.69191206
-0.048654862 -0.15241131 0.69100827
-0.045355994 -0.15707929 0.69234985
0.044125106 -0.15741913 0.69197917
0.049612414 -0.15353155 0.69209993
-0.051860943 -0.14749046 0.69206905
0.052479915 -0.14816502 0.69198644
-0.057621505 -0.13864902 0.6921134
-0.055119067 -0.14249004 0.69121873
0.055223025 -0.14276078 0.6925289
0.057194438 -0.13887696 0.6926927
-0.061369181 -0.13289671 0.69273859
0.060725152 -0.13192092 0.69114208
-0.063680351 -0.1215182 0.68867457
0.063361332 -0.12672666 0.69158375
0.064872049 -0.12259088 0.6914196
-0.064112477 -0.11351955 0.69334787
-0.063881367 -0.11779747 0.69084847
0.064880796 -0.1174877 0.68901443
-0.06428697 -0.11028977 0.69523484
0.06423375 -0.10548563 0.69465923
-0.064905368 -0.098817788 0.68927538
0.063852675 -0.098416708 0.69053817
0.064059921 -0.10226111 0.69277942
-0.064894572 -0.09529563 0.68916065
-0.063657284 -0.092857875 0.68842512
0.063680835 -0.095229141 0.68867981
0.048870981 -0.06653519 0.69407761
0.02469565 -0.0088205338 0.69316828
0.035062104 -0.005258014 0.68881416
0.039114829 0.015762692 0.68817949
0.040573992 0.013524665 0.69316041
0.021640165 0.023979641 0.68943596
0.031110693 0.022892773 0.69194072
0.036074277 0.019647742 0.69142818
0.022873301 0.024046293 0.69135219
0.026083438 0.024124198 0.69359207
-0.033338986 -0.24048886 0.6992802
-0.02777425 -0.24260403 0.699763
-0.020019105 -0.24223582 0.70017689
-0.015950093 -0.24043287 0.69636112
-0.03748396 -0.23671934 0.69963366
-0.012474448 -0.23756482 0.70026368
-0.040921323 -0.23010653 0.69909412
-0.008916893 -0.23183757 0.70074075
-0.02512023 -0.16871969 0.69948179
-0.019947356 -0.1713459 0.69986451
-0.011960818 -0.17426969 0.69913316
-0.0045986925 -0.1740337 0.69957185
0.0041589858 -0.17356047 0.70066124
0.011594245 -0.17315853 0.69925606
0.020311844 -0.17223857 0.70011687
0.025758738 -0.16938457 0.69961685
-0.041575842 -0.16036582 0.7001456
-0.036230665 -0.16307919 0.70013934
-0.029378759 -0.16655774 0.70037818
0.02968525 -0.16682637 0.69983888
0.03612924 -0.162628 0.7000826
-0.048237514 -0.15304989 0.70199656
-0.04560373 -0.15688233 0.69997346
0.043937366 -0.15754092 0.6999104
0.049039464 -0.15400955 0.69986647
-0.051218949 -0.14847441 0.69983447
0.052560918 -0.1480038 0.70066369
-0.05763182 -0.1386319 0.70036882
-0.054881305 -0.1428533 0.7006681
0.055277884 -0.1426512 0.70065391
0.057349455 -0.13857022 0.6998449
-0.061652433 -0.13220139 0.69881594
0.060711801 -0.13194615 0.6997661
-0.063539967 -0.12410643 0.70000029
0.063512668 -0.12642802 0.69969964
0.064801961 -0.1233549 0.70080429
-0.063831307 -0.11871358 0.70321006
0.064831957 -0.11658236 0.70112866
-0.064491779 -0.10649884 0.69744974
0.064478695 -0.11002949 0.6973083
-0.064846054 -0.099940501 0.70128113
0.063820302 -0.09781836 0.70308876
0.06354133 -0.092643492 0.70001549
0.046961538 -0.063606136 0.70072937
0.023151262 -0.0089043314 0.69975358
0.031336527 -0.0076863184 0.69696361
0.036680631 -0.0035520056 0.69743645
0.039613895 0.00059125217 0.69695997
0.040816072 0.0029576863 0.69729602
0.039727271 0.014823609 0.6989547
0.041065864 0.010710534 0.70156348
0.018437132 0.023195101 0.70107865
0.030405205 0.023251038 0.7027694
0.035103995 0.020432031 0.70141906
0.027245397 0.024283197 0.69816345
-0.032854687 -0.24073526 0.70415741
-0.029271279 -0.24253291 0.70417368
-0.018532183 -0.24211401 0.70469302
-0.036844347 -0.23759548 0.70429444
-0.014948942 -0.23978102 0.70486432
-0.024489893 -0.16903999 0.70410609
-0.019715205 -0.17146401 0.70424861
-0.014938906 -0.17388886 0.70439112
-0.0023911358 -0.1739147 0.70449579
0.019128095 -0.17275162 0.70462716
0.024486773 -0.17021292 0.70401639
-0.026876431 -0.16782838 0.70403486
0.029875249 -0.16670224 0.70432448
0.037066869 -0.16201678 0.70473564
-0.044806316 -0.15831564 0.70422763
-0.057985276 -0.13808864 0.70466238
-0.055614494 -0.14172725 0.70492047
-0.061537985 -0.13263607 0.70427567
0.065152869 -0.12253521 0.7045992
-0.063948639 -0.11654191 0.70450258
0.063925609 -0.099771746 0.70424891
-0.050811812 -0.067549817 0.70466197
0.022104161 -0.0089611467 0.70421845
0.041225083 0.0077670445 0.70428354
0.014939858 0.020915801 0.704436
0.038867127 0.016144807 0.70486212
