# .PCD v0.7 - Point Cloud Data file format
VERSION 0.7
FIELDS x y z
SIZE 4 4 4
TYPE F F F
COUNT 1 1 1
WIDTH 723
HEIGHT 1
VIEWPOINT 0 0 0 1 0 0 0
POINTS 723
DATA ascii
-0.080650263 -0.1444114 0.67107821
-0.075302362 -0.14532577 0.67107862
-0.067493252 -0.14643569 0.6710791
-0.059884604 -0.14690568 0.67107952
-0.052026417 -0.14601554 0.67107964
-0.044438697 -0.14496993 0.67108011
-0.088620342 -0.13644117 0.67107791
-0.083102591 -0.13889357 0.67107791
-0.075716391 -0.13947754 0.67107832
-0.067746282 -0.13947763 0.67107922
-0.059776168 -0.13947774 0.67107952
-0.05180604 -0.1394778 0.67107975
-0.043835916 -0.13947788 0.67107999
-0.036498323 -0.13865568 0.67108047
-0.030457452 -0.13634691 0.67108089
-0.090648115 -0.13105182 0.67107773
-0.083686501 -0.13150729 0.67107797
-0.075716391 -0.13150744 0.67107844
-0.06795875 -0.1319589 0.6710856
-0.059682291 -0.13255346 0.67109078
-0.051657535 -0.13173044 0.6710797
-0.043835923 -0.13150775 0.67107999
-0.035865765 -0.13150783 0.67108077
-0.028266322 -0.13113718 0.67108124
-0.021892117 -0.12912726 0.67108148
-0.096210912 -0.12069061 0.67107755
-0.091585405 -0.12346595 0.67107773
-0.083686501 -0.12353719 0.67107797
-0.076562203 -0.12425296 0.6710785
-0.071162052 -0.12695311 0.67107886
-0.049149346 -0.12619425 0.67108005
-0.043499526 -0.12382226 0.67108005
-0.035865773 -0.1235377 0.67108095
-0.02789562 -0.12353773 0.67108136
-0.019996617 -0.12346668 0.67108154
-0.013333581 -0.12168017 0.67108172
-0.096824005 -0.11495388 0.67107767
-0.091656581 -0.11556699 0.67107773
-0.083686501 -0.11556708 0.67107803
-0.078351334 -0.11592581 0.67109543
-0.0423178 -0.11575722 0.67108035
-0.03586578 -0.11556751 0.67108101
-0.02789562 -0.11556756 0.6710813
-0.019925455 -0.11556765 0.67108154
-0.011955284 -0.11556775 0.67108178
-0.0048580212 -0.11439122 0.67108226
0.00056929968 -0.11215204 0.67108268
-0.096780218 -0.10759683 0.67107767
-0.091656595 -0.1075969 0.67107779
-0.083686508 -0.10759693 0.67107815
-0.077993587 -0.10714155 0.67107862
-0.042663846 -0.10732938 0.67108035
-0.03586578 -0.10759731 0.67108113
-0.027895624 -0.10759738 0.67108136
-0.019925456 -0.10759748 0.6710816
-0.011955284 -0.10759755 0.67108184
-0.0039850944 -0.10759757 0.67108232
0.0034157988 -0.10690852 0.67108297
0.0092985677 -0.10494097 0.67108315
-0.096210919 -0.099626713 0.67107773
-0.091656595 -0.099626727 0.67107779
-0.083686516 -0.099626824 0.67107815
-0.075914428 -0.09942884 0.67107874
-0.068529084 -0.097136259 0.67107916
-0.059349228 -0.096353531 0.67107964
-0.050940733 -0.097987488 0.67107999
-0.043835927 -0.099627122 0.67108023
-0.03586578 -0.099627204 0.67108113
-0.02789562 -0.099627249 0.67108148
-0.019925456 -0.099627294 0.6710816
-0.011955284 -0.099627376 0.67108184
-0.0039850948 -0.099627391 0.6710825
0.003985099 -0.099627458 0.67108309
0.011727584 -0.099349216 0.67108339
0.018122731 -0.097255506 0.67108369
-0.091585428 -0.091727756 0.67107779
-0.083686516 -0.091656685 0.67107815
-0.075716428 -0.091656692 0.67107898
-0.067746311 -0.091656774 0.67107934
-0.059776198 -0.091656864 0.6710797
-0.051806066 -0.091656916 0.67107981
-0.043835931 -0.091656946 0.67108023
-0.035865784 -0.091657005 0.67108113
-0.027895628 -0.091657072 0.67108148
-0.019925458 -0.091657124 0.6710816
-0.011955285 -0.091657162 0.67108184
-0.0039850953 -0.091657236 0.67108262
0.0039850995 -0.091657281 0.67108309
0.011955304 -0.091657348 0.67108339
0.019854361 -0.091586255 0.67108351
0.026860654 -0.089846037 0.67108428
-0.090944998 -0.083828792 0.67107785
-0.083686516 -0.083686538 0.67107815
-0.075716428 -0.083686575 0.67107904
-0.067746319 -0.083686613 0.67107946
-0.059776206 -0.083686695 0.6710797
-0.051806066 -0.083686724 0.67107999
-0.043835931 -0.083686769 0.67108047
-0.035865787 -0.083686821 0.67108124
-0.027895626 -0.083686866 0.67108148
-0.01992546 -0.083686925 0.6710816
-0.011955286 -0.083686978 0.67108196
-0.0039850958 -0.083687045 0.67108262
0.0039851 -0.083687104 0.67108315
0.011955306 -0.083687127 0.67108351
0.019925524 -0.083687186 0.67108363
0.027895752 -0.083687246 0.67108411
0.035083201 -0.082619846 0.67108476
0.040420413 -0.080271527 0.67108494
-0.090224214 -0.075936727 0.67107797
-0.083686516 -0.075716391 0.67107821
-0.075716436 -0.075716436 0.67107916
-0.067746334 -0.075716496 0.67107952
-0.059776209 -0.075716533 0.6710797
-0.05180607 -0.075716577 0.67107993
-0.043835931 -0.0757166 0.67108059
-0.03586578 -0.075716674 0.67108124
-0.027895633 -0.075716712 0.67108148
-0.019996988 -0.075789414 0.67109543
-0.012208438 -0.076729879 0.67109096
-0.0043991334 -0.077838771 0.67108256
0.0042697503 -0.077709459 0.67108303
0.012208331 -0.076729029 0.67108345
0.020046653 -0.075862341 0.67108375
0.027895752 -0.075717025 0.67108417
0.035865985 -0.075717077 0.67108494
0.042870145 -0.07492356 0.67108524
-0.089577459 -0.067993738 0.67107821
-0.083686516 -0.067746229 0.67107821
-0.075716436 -0.067746282 0.67107922
-0.067746326 -0.067746326 0.67107946
-0.059776209 -0.067746364 0.67107975
-0.05180607 -0.067746416 0.67107999
-0.043835942 -0.067746475 0.67108059
-0.036581475 -0.068592295 0.67108107
-0.028708914 -0.070430361 0.67108142
-0.022771955 -0.071162358 0.67108166
0.022786714 -0.071209654 0.67152774
0.028600195 -0.07055869 0.67117256
0.036449935 -0.068330862 0.67108572
0.043836232 -0.0677469 0.6710853
0.050667886 -0.066608347 0.67108542
-0.088924021 -0.060003791 0.67107832
-0.083686545 -0.059776112 0.67107832
-0.075716458 -0.059776146 0.67107922
-0.067746334 -0.059776176 0.67107952
-0.059776213 -0.059776206 0.6710797
-0.051806085 -0.059776258 0.67108005
-0.044683415 -0.060494047 0.67110515
-0.039281573 -0.063192099 0.67108089
0.03891379 -0.062831432 0.67128366
0.044471025 -0.0606023 0.67112172
0.051806498 -0.059776731 0.67108542
0.058258619 -0.05825863 0.67108607
-0.088240884 -0.052375231 0.67107838
-0.083686545 -0.051805947 0.67107832
-0.075716443 -0.051805988 0.67107928
-0.067746326 -0.051806025 0.67107952
-0.059776217 -0.051806062 0.67107975
-0.052390892 -0.052390959 0.67109269
-0.046900008 -0.054875042 0.67148113
0.047252066 -0.055222295 0.67108542
0.052643701 -0.052643701 0.67108554
0.059776779 -0.051806543 0.67108577
0.06554573 -0.05028842 0.67108631
-0.083541192 -0.043956939 0.67107856
-0.075716451 -0.043835845 0.67107928
-0.067746334 -0.043835875 0.67107952
-0.060265381 -0.044162042 0.67109334
-0.054842327 -0.046872165 0.67108011
0.055222332 -0.0472521 0.67108589
0.060359966 -0.044141784 0.67108589
0.066823855 -0.043559365 0.67108673
-0.082898296 -0.036040828 0.6710788
-0.075716458 -0.035865691 0.67107928
-0.067746349 -0.035865709 0.67107952
-0.061691925 -0.03614071 0.67111188
0.061689645 -0.036139332 0.67108625
0.067747056 -0.035866089 0.67108685
0.072626829 -0.034239523 0.67108679
-0.082168445 -0.028085288 0.67107886
-0.075716458 -0.027895533 0.67107946
-0.067746349 -0.027895551 0.6710797
-0.062777959 -0.028516619 0.67107981
0.06262935 -0.028752899 0.67115289
0.067747056 -0.027895857 0.67108685
0.07381966 -0.02732656 0.67108703
-0.081512906 -0.020080639 0.67107874
-0.075716458 -0.019925388 0.67107946
-0.06789171 -0.020046519 0.67107964
-0.063191995 -0.023341188 0.67107981
0.06323088 -0.023355551 0.67149276
0.067969829 -0.020074124 0.67108691
0.075202279 -0.019654527 0.67108721
-0.080796316 -0.012217978 0.67107892
-0.075716458 -0.01195523 0.67107946
-0.068700306 -0.012109103 0.67107964
0.068790831 -0.01205026 0.67108744
0.075717367 -0.011955376 0.67108732
0.080727264 -0.01093063 0.67108738
-0.080270812 -0.0068315584 0.67107898
-0.075493708 -0.0041335891 0.67107952
-0.068198048 -0.0037733957 0.67109549
0.068197228 -0.0037732883 0.67108703
0.075717375 -0.0039851232 0.67108715
0.08129058 -0.0036854928 0.67108744
-0.074236318 0.0036435002 0.67107952
-0.067746364 0.0039850809 0.67107975
-0.062866703 0.0056116465 0.67108005
0.062923171 0.0051245848 0.67124903
0.067747079 0.0039851214 0.67108697
0.075717382 0.0039851256 0.67108715
0.081916489 0.0041116383 0.67108738
-0.072870009 0.011101292 0.67107958
-0.067746364 0.011955241 0.6710797
-0.061945166 0.012497477 0.67108202
0.062055331 0.012411043 0.67110085
0.067747086 0.011955369 0.67108709
0.075717382 0.011955376 0.67108721
0.082733706 0.012109247 0.67108744
-0.067322701 0.019634133 0.6710797
-0.060850907 0.020251164 0.67109317
0.061018921 0.020236125 0.67108661
0.067747094 0.019925611 0.67108709
0.07571739 0.019925632 0.67108721
0.083384044 0.020077446 0.6710875
-0.065924637 0.027349046 0.67107981
-0.059776261 0.027895585 0.67108005
-0.053324245 0.029413728 0.67108059
0.053324681 0.029413966 0.67108619
0.059776794 0.027895842 0.67108667
0.067747094 0.027895857 0.67108709
0.075717375 0.027895881 0.67108721
0.083687685 0.02789589 0.67108756
0.088242158 0.029603818 0.67108804
-0.064330615 0.032449953 0.67108005
-0.058930445 0.03515007 0.67108017
-0.051806118 0.035865773 0.67108101
-0.045354098 0.037383921 0.67108101
0.045354422 0.037384182 0.67108583
0.051806532 0.035866071 0.67108577
0.059776802 0.035866089 0.67108679
0.067747101 0.035866115 0.67108715
0.07571739 0.035866126 0.67108738
0.083687708 0.035866152 0.67108762
0.088716589 0.036340591 0.67108816
-0.056740016 0.040799677 0.67108053
-0.051222231 0.043252062 0.67108107
-0.04383596 0.04383596 0.67108136
-0.037383951 0.045354135 0.67108154
0.037159894 0.045440655 0.67108542
0.043836273 0.043836277 0.6710856
0.051806539 0.043836311 0.67108589
0.059776817 0.043836329 0.67108679
0.067747109 0.043836359 0.67108715
0.07571739 0.043836385 0.67108738
0.083687708 0.043836419 0.67108762
0.089323848 0.044007223 0.67108816
-0.048845787 0.049301226 0.67108095
-0.043465272 0.051435448 0.67108148
-0.035865828 0.051806197 0.67108154
-0.028047524 0.052109972 0.67108339
-0.020139301 0.053159188 0.6710937
-0.012495413 0.054146044 0.67111689
-0.0055032349 0.055032346 0.67108321
0.006036411 0.055007774 0.67124927
0.012334855 0.054273363 0.67108434
0.020139035 0.053158507 0.67108464
0.028044416 0.052029442 0.67108816
0.035866026 0.051806487 0.67108536
0.043836277 0.051806517 0.6710856
0.051806539 0.051806543 0.67108607
0.05977682 0.05180658 0.67108685
0.067747116 0.051806599 0.67108732
0.07571739 0.051806651 0.67108738
0.083687708 0.051806677 0.67108762
0.090048239 0.051924482 0.67108828
-0.041131824 0.057641484 0.67108142
-0.035581179 0.059439979 0.67108154
-0.027895659 0.059776414 0.67108184
-0.019925486 0.059776444 0.6710825
-0.011955296 0.059776485 0.67108309
-0.0039851014 0.059776541 0.67108333
0.0039851046 0.059776559 0.67108357
0.011955321 0.059776593 0.67108393
0.019925544 0.059776653 0.67108494
0.027895778 0.059776686 0.67108518
0.035866022 0.059776708 0.67108542
0.043836281 0.059776764 0.67108566
0.05180655 0.059776787 0.67108637
0.059776817 0.05977682 0.67108691
0.067747116 0.05977685 0.67108721
0.075717397 0.059776898 0.67108744
0.083687715 0.059776939 0.67108768
0.090789095 0.059956759 0.67108852
-0.033360921 0.064786226 0.6710819
-0.027310977 0.066977285 0.67108202
-0.019925486 0.067746647 0.67108256
-0.011955296 0.067746691 0.67108315
-0.0039851018 0.067746729 0.67108339
0.0039851046 0.067746788 0.67108363
0.011955321 0.067746818 0.67108405
0.019925546 0.067746863 0.67108494
0.027895782 0.067746885 0.6710853
0.035866026 0.067746952 0.67108536
0.043836288 0.067746997 0.67108566
0.05180655 0.067747027 0.67108613
0.059776831 0.067747064 0.67108691
0.067747116 0.067747109 0.67108715
0.075717412 0.067747161 0.67108738
0.083687723 0.067747191 0.67108774
0.091435269 0.067895763 0.6710887
-0.024479875 0.07230103 0.67108238
-0.019030871 0.074374937 0.67108268
-0.011955297 0.075716905 0.67108315
-0.0039851018 0.07571695 0.67108339
0.0039851051 0.075716972 0.67108375
0.011955324 0.075717032 0.67108411
0.019925546 0.075717092 0.67108494
0.027895784 0.075717151 0.6710853
0.035866026 0.075717188 0.67108542
0.043836288 0.075717233 0.67108577
0.051481247 0.075229295 0.67108637
0.059640203 0.073804453 0.67108673
0.068202555 0.074708894 0.67108727
0.075717427 0.075717412 0.67108744
0.083687715 0.075717449 0.67108774
0.091658041 0.075717486 0.6710887
0.096212506 0.076856151 0.6710887
-0.010563679 0.081726186 0.67108315
-0.0039139399 0.083615966 0.67108345
0.0039851046 0.083687231 0.67108375
0.011955321 0.083687246 0.67108411
0.019925548 0.083687328 0.67108506
0.02789579 0.083687358 0.6710853
0.03586603 0.083687395 0.67108542
0.043348316 0.083362177 0.67108577
0.048770268 0.080651224 0.67108631
0.077093251 0.083022021 0.67110205
0.083687715 0.083687715 0.67108774
0.091658041 0.08368779 0.67108876
0.096686929 0.084162228 0.6710887
-0.0018344126 0.089127153 0.67108357
0.0043558134 0.091286711 0.67108369
0.011955325 0.09165746 0.6710844
0.019925548 0.091657579 0.67108506
0.027895791 0.091657579 0.6710853
0.035866033 0.091657676 0.67108542
0.042226538 0.091539919 0.67108589
0.078563966 0.091657951 0.67108786
0.083687723 0.091657981 0.67108792
0.091658048 0.091658048 0.67108876
0.09689568 0.091658086 0.67108887
0.0070213783 0.096591391 0.67108417
0.012587882 0.098805383 0.67108452
0.019925553 0.099627756 0.67108506
0.027895791 0.099627793 0.6710853
0.035866033 0.099627875 0.67108542
0.043181598 0.09994106 0.67108583
0.048390735 0.1030438 0.67108631
0.07734549 0.10038328 0.67115754
0.08368773 0.099628232 0.6710881
0.091658056 0.099628292 0.67108887
0.096402295 0.098110206 0.67108876
0.015371136 0.10418215 0.67108464
0.020927526 0.10604951 0.67108506
0.027895795 0.10759806 0.67108536
0.035866044 0.10759812 0.67108554
0.043836303 0.10759817 0.67108583
0.051174007 0.10842058 0.67108655
0.05958961 0.11006966 0.67111391
0.068256721 0.10924827 0.6711207
0.075719193 0.10760103 0.67110389
0.083687745 0.1075985 0.67108822
0.091207914 0.10738677 0.67108876
0.029413935 0.11336701 0.67108536
0.036064055 0.1153703 0.67108554
0.043836311 0.11556844 0.67108577
0.051806558 0.11556852 0.67108685
0.059776846 0.11556859 0.67108715
0.067747138 0.11556868 0.67108738
0.075717442 0.11556874 0.67108762
0.083489731 0.11537078 0.67108828
0.089380831 0.11329161 0.67108858
0.038522799 0.12088188 0.67108589
0.044271663 0.12243357 0.67108607
0.051927697 0.12339343 0.67108691
0.05977685 0.12353885 0.67108715
0.067747146 0.12353891 0.67108744
0.075542271 0.12275074 0.67108768
0.081410527 0.12126182 0.67108816
0.055222407 0.12809321 0.67108679
0.060397912 0.12850732 0.67108703
0.066039219 0.12809333 0.67108738
-0.06719736 -0.1288061 0.67558098
-0.060384352 -0.12988544 0.67647529
-0.054172099 -0.1286933 0.67574072
-0.074444905 -0.12312217 0.6750465
-0.071081556 -0.12668414 0.67572594
-0.050467193 -0.12616874 0.67603004
-0.047076967 -0.12285957 0.67675376
-0.077172346 -0.11637055 0.67671716
-0.076507546 -0.10779852 0.67470962
-0.016594701 -0.072673343 0.67453814
-0.012040182 -0.073952004 0.67577422
-0.004400712 -0.076080963 0.67602354
0.0044711111 -0.075790271 0.67580223
0.012425973 -0.073759727 0.67577648
0.017768122 -0.072396122 0.67553282
-0.034854431 -0.066625915 0.67356032
-0.027710387 -0.069552764 0.67574281
-0.020946901 -0.07145153 0.67651951
0.021636344 -0.071408711 0.67702866
0.027650628 -0.069873527 0.67624372
0.034528259 -0.066753507 0.67834979
-0.042749166 -0.058771368 0.67485505
-0.038818844 -0.062795386 0.67292953
0.038592439 -0.062784173 0.67898494
0.043197758 -0.058287166 0.67643678
-0.050665535 -0.050666302 0.67868507
-0.04667921 -0.054747667 0.67932159
0.046790596 -0.054779068 0.67263448
0.050832827 -0.050831608 0.673262
-0.057466269 -0.043674782 0.67740732
-0.054644752 -0.046592221 0.6780498
0.054881521 -0.046877824 0.67389059
0.057462495 -0.043332886 0.67510337
-0.059645459 -0.036703221 0.67604941
0.059647065 -0.036126178 0.67606217
-0.061851736 -0.02805868 0.67509127
0.062088154 -0.02742663 0.67642111
-0.064633772 -0.017158197 0.6742425
-0.063602872 -0.021197716 0.67544317
0.063668407 -0.02179507 0.67613918
0.0647972 -0.017772699 0.67594737
-0.065813728 -0.012058237 0.67697173
0.065986373 -0.011473728 0.67638111
-0.065116271 -0.0047746045 0.67529267
-0.063937835 -0.00057601649 0.67900038
0.063849352 -0.00057521934 0.67806071
0.064943857 -0.0048636226 0.67450219
-0.062712148 0.0037893013 0.67575133
0.062872909 0.0032496136 0.67581433
-0.060457032 0.011822363 0.67617548
0.060775734 0.011465346 0.67586303
-0.058172036 0.019854318 0.67627817
0.058154624 0.020760419 0.67605364
-0.052322302 0.028171122 0.67774677
0.052164149 0.028090794 0.67573881
-0.044167005 0.036133789 0.67612475
0.044244118 0.036202583 0.67735338
-0.036050703 0.044058509 0.67451179
-0.031617373 0.047713492 0.67763871
0.030934155 0.047549456 0.67530906
0.03685585 0.043768805 0.67885166
-0.027531486 0.048756339 0.67615652
-0.020661183 0.050510146 0.67659682
-0.011356371 0.052885313 0.67615175
-0.0035507369 0.054877769 0.67525977
0.0033305665 0.055267919 0.67722923
0.012596337 0.052695103 0.67516768
0.02063011 0.050440878 0.67566109
0.026417043 0.048817143 0.67699981
0.076468155 0.086244062 0.67774153
0.077420399 0.09256167 0.67601568
0.075414427 0.10031041 0.67567253
0.054481972 0.10762838 0.67605573
0.060509901 0.10882868 0.67608732
0.068305761 0.10713687 0.67536294
-0.066891521 -0.12889247 0.68396622
-0.060420122 -0.12993044 0.68409854
-0.053970534 -0.12864238 0.68410724
-0.074411482 -0.12311503 0.68349481
-0.070758395 -0.12701556 0.68368095
-0.050084323 -0.12579396 0.68650377
-0.047215279 -0.12299289 0.68712008
-0.077173524 -0.11663224 0.68400872
-0.076834843 -0.10896339 0.68442315
-0.017387029 -0.072451025 0.68323421
-0.0123762 -0.073857777 0.68375176
-0.0038350455 -0.076237641 0.68394715
0.0040586987 -0.075895578 0.68295115
0.011808925 -0.07391715 0.6843105
0.017396681 -0.072490826 0.68360955
-0.035285037 -0.066297784 0.68192387
-0.027954102 -0.069484621 0.68370289
-0.022067867 -0.071137004 0.68454707
0.02148897 -0.071446232 0.68471414
0.028445421 -0.069670551 0.68438816
0.034928318 -0.066362664 0.68620926
-0.042628136 -0.05889539 0.68517882
-0.039255969 -0.062347919 0.68050724
0.038451958 -0.062921181 0.68676591
0.042571042 -0.058898158 0.68741667
-0.050665308 -0.050666563 0.68648636
-0.046633482 -0.054794513 0.68713748
0.046585031 -0.054978684 0.68219262
0.050832141 -0.050831363 0.68090653
-0.057904016 -0.042356405 0.68395102
-0.054690585 -0.046545327 0.68583626
0.054341577 -0.047404207 0.68145758
0.057552688 -0.042961854 0.68252051
-0.059925228 -0.035608333 0.68251252
0.059410911 -0.036965586 0.68437409
-0.061636996 -0.028902709 0.68415666
0.061669625 -0.028916132 0.68451416
-0.06442263 -0.017988579 0.68414879
-0.063239597 -0.02262369 0.68390799
0.063269064 -0.023216652 0.68422675
0.064411707 -0.019145817 0.68403286
-0.065830976 -0.012470428 0.68371511
0.065986633 -0.012405233 0.68353331
-0.065112859 -0.0047613648 0.68408424
0.064858057 -0.0045258179 0.68384999
-0.062831625 0.0033653895 0.6845209
0.062667005 0.0040576984 0.68398958
-0.060354795 0.012188213 0.68409997
0.060473353 0.012651114 0.68412471
-0.058070302 0.020325918 0.68453461
0.058115594 0.020536821 0.683716
-0.051906705 0.028576594 0.68748271
0.052336644 0.027914673 0.6855011
-0.048356187 0.032043256 0.68676639
-0.044225458 0.036076531 0.68593401
0.044302046 0.036143254 0.68715811
0.048325501 0.032022923 0.68633062
-0.040102664 0.040102664 0.6851083
-0.035992324 0.044117045 0.68428856
-0.030628983 0.047966145 0.68122691
0.029469552 0.047960252 0.68114322
0.032556735 0.047093429 0.68534684
0.040270761 0.040270761 0.68798
-0.026880125 0.048923358 0.68384415
-0.019511567 0.050804239 0.6831333
-0.012974191 0.052473187 0.68474561
-0.0046447027 0.054599576 0.68469226
0.0048463978 0.054870158 0.68565696
0.012463698 0.052732665 0.68310744
0.020591866 0.050451815 0.6836108
0.026693875 0.048739217 0.68397903
0.076052338 0.084762439 0.68434703
0.077555284 0.092860542 0.68328047
0.047031119 0.10161044 0.68444002
0.048737332 0.10327689 0.6839413
0.075457722 0.10037645 0.68317086
0.05283175 0.10670296 0.68432426
0.060060047 0.10879825 0.68400711
0.068286493 0.10712471 0.68332529
0.072415918 0.10427704 0.68290311
-0.066988356 -0.12886575 0.69183171
-0.060148489 -0.12992997 0.69241261
-0.054521769 -0.12878376 0.6910947
-0.074430339 -0.12316762 0.69220984
-0.071007565 -0.12676057 0.69177586
-0.077279754 -0.11621314 0.69187689
-0.076896936 -0.109184 0.69194698
-0.017651681 -0.072377048 0.69363475
-0.011618964 -0.074070483 0.69186497
-0.0034000191 -0.076360807 0.69134629
0.0043038875 -0.07583306 0.69118768
0.011866107 -0.0739026 0.69249541
0.018214369 -0.072282039 0.69272423
-0.03454249 -0.066864982 0.69018048
-0.028082853 -0.069448873 0.69260126
-0.02130975 -0.07135009 0.69129783
0.02290827 -0.071083851 0.69250137
0.028508693 -0.069654293 0.69289833
0.034728155 -0.06650795 0.69381237
-0.042990532 -0.058524597 0.69412434
-0.038545847 -0.06307523 0.68844563
0.038903061 -0.062480465 0.69482279
0.04307095 -0.058409762 0.69548881
-0.050665554 -0.050666362 0.69446909
-0.04716986 -0.054245513 0.69504106
0.047286995 -0.054292478 0.68816376
0.050831925 -0.050830651 0.68872672
-0.057826132 -0.042927984 0.69320136
-0.054737225 -0.046497609 0.69380373
0.054973692 -0.046785973 0.68938452
0.057757825 -0.042506903 0.69120169
-0.059875529 -0.03580403 0.69196397
0.059941988 -0.035071258 0.69137859
-0.062093891 -0.027114188 0.69183391
0.062209345 -0.026992435 0.69180012
-0.064204186 -0.018847652 0.69433957
-0.06346371 -0.021747936 0.69271332
0.063715078 -0.021628054 0.68905008
0.064451434 -0.019005137 0.69279051
-0.065825023 -0.012084779 0.69156533
0.066094764 -0.012562133 0.69193888
-0.064820327 -0.0037183056 0.6925469
-0.063941225 -0.00058661675 0.69149578
0.063852623 -0.00058580388 0.69053757
0.064853303 -0.0045055854 0.69288927
-0.062291667 0.0052900333 0.6927318
0.062453479 0.0048953835 0.69235021
-0.06024731 0.012572797 0.69222039
0.060478617 0.012631294 0.69217825
-0.058001976 0.020210657 0.69062364
0.058433376 0.020109031 0.69298404
-0.055463001 0.025104307 0.68820029
0.053675421 0.026544025 0.69530571
-0.041895088 0.038354132 0.69556379
-0.035921879 0.044159818 0.69411182
-0.031277802 0.047801927 0.69565749
0.030585937 0.047646165 0.69339073
0.036805846 0.043818235 0.68868518
-0.027596315 0.048741356 0.69223666
-0.021095779 0.0504006 0.69083005
-0.011729369 0.052791737 0.69144475
-0.0033246458 0.054937351 0.69138891
0.0035209851 0.05521024 0.69234669
0.012315473 0.052774549 0.69123393
0.020540114 0.050466124 0.69174325
0.026967572 0.048661973 0.6911093
0.076318473 0.085709564 0.69203389
0.077612549 0.092470348 0.69136614
0.0752156 0.10078612 0.69208103
0.054053504 0.1075176 0.69256985
0.060084358 0.10870964 0.69268715
0.068757176 0.10688917 0.69155347
0.072443493 0.10424795 0.6942715
-0.067287393 -0.12878105 0.70038038
-0.059988957 -0.129905 0.70014125
-0.053940579 -0.12862222 0.69870108
-0.074202329 -0.12332873 0.69976997
-0.070998669 -0.12676992 0.69938636
-0.050272685 -0.12597786 0.69718915
-0.047941074 -0.12369981 0.6976825
-0.077296592 -0.1158194 0.70013094
-0.076575652 -0.10803911 0.69973898
-0.018483184 -0.072144039 0.70282984
-0.012934066 -0.073701583 0.69950497
-0.0047487505 -0.075999357 0.6999051
0.0034401219 -0.076053619 0.69930983
0.012485463 -0.073744565 0.70103997
0.018499887 -0.072209232 0.70346493
-0.03519756 -0.066259556 0.69735861
-0.027918771 -0.069495268 0.70018309
-0.021162936 -0.071391657 0.69936508
0.021201657 -0.071519502 0.70062017
0.027425617 -0.069930688 0.69977838
0.034555454 -0.066726565 0.70229328
-0.043032978 -0.058481354 0.70117444
-0.03899008 -0.06262064 0.69637978
0.03876321 -0.062616922 0.7029736
0.04297952 -0.058498926 0.7036553
-0.050665408 -0.050666731 0.70264083
-0.046538711 -0.054891989 0.7033242
0.047245696 -0.054332376 0.69615602
0.050831266 -0.050830454 0.6967293
-0.057620719 -0.042973485 0.70025975
-0.054785244 -0.046448514 0.70195866
0.054422252 -0.047323544 0.69730556
0.057267267 -0.043909684 0.69953269
-0.059453361 -0.037458662 0.70084214
0.059488051 -0.036687739 0.69983834
-0.061741751 -0.028494406 0.69980967
0.061825909 -0.028359091 0.69942063
-0.064768866 -0.016636569 0.70044637
-0.063557312 -0.021382466 0.70019156
0.063460492 -0.022535956 0.69912481
0.064781949 -0.017828472 0.70058787
-0.06595055 -0.011578695 0.70037484
0.065958537 -0.012475424 0.70045966
-0.065275677 -0.0053397426 0.6995191
0.063855812 -0.0005967833 0.70348001
0.064991251 -0.0050449702 0.69965243
-0.062943093 0.0029701223 0.69997621
0.0627646 0.0036772732 0.6993075
-0.060607456 0.011290855 0.70043397
0.060701393 0.01175941 0.70014322
-0.058076702 0.020306295 0.70000142
0.05884786 0.019020114 0.70069754
-0.056292094 0.024294483 0.69848788
-0.052081238 0.028406078 0.6976276
0.049607586 0.030709622 0.69615316
-0.046081863 0.034265105 0.69641113
0.044359896 0.03608235 0.69723684
0.036169857 0.044306476 0.69900692
-0.02737299 0.048799314 0.70150983
-0.019105261 0.050909705 0.69944561
-0.011854705 0.052760608 0.69880319
-0.004743584 0.054576043 0.69927543
0.0049488088 0.054841969 0.70014888
0.010876198 0.05317834 0.699121
0.018408366 0.051064029 0.69993889
0.026741086 0.048725005 0.70045775
0.07659322 0.086688794 0.69989955
0.077718571 0.093139865 0.69934028
0.048615146 0.10315914 0.69886649
0.075104378 0.10086612 0.70078874
0.0528032 0.1066682 0.69931966
0.060569838 0.10886382 0.69997358
0.068436965 0.10704748 0.70026958
0.072230414 0.10446548 0.70367128
-0.060960449 -0.12968904 0.70449615
-0.053167559 -0.12843849 0.70419317
-0.013739365 -0.073475733 0.70416415
-0.00059755339 -0.077084385 0.70438772
0.0041815024 -0.075864397 0.70415682
-0.036481898 -0.065188967 0.70498955
-0.030498575 -0.068771295 0.7049275
-0.02211443 -0.071124792 0.70454562
-0.041220263 -0.060337443 0.70420486
-0.03826002 -0.06336838 0.70469511
0.046599515 -0.05496335 0.70424068
0.049621195 -0.052012127 0.70472926
-0.060324948 -0.034044772 0.70406163
-0.062150992 -0.026891774 0.70444822
0.061565213 -0.029288305 0.70458478
-0.063978828 -0.019731788 0.70483518
0.063917696 -0.020907659 0.70416176
0.066295467 -0.010153361 0.70403779
-0.063944697 -0.00059761398 0.70445919
-0.061594751 0.0077740946 0.7049228
0.057994038 0.022121437 0.70476884
-0.034663089 0.04541938 0.7044785
-0.012547947 0.052584287 0.70438039
-0.0053815874 0.054413825 0.70486015
0.0065740892 0.054385647 0.70449513
0.077078693 0.096198991 0.70433575
0.05915831 0.1087577 0.70440912
