# .PCD v0.7 - Point Cloud Data file format
VERSION 0.7
FIELDS x y z
SIZE 4 4 4
TYPE F F F
COUNT 1 1 1
WIDTH 1350
HEIGHT 1
VIEWPOINT 0 0 0 1 0 0 0
POINTS 1350
DATA ascii
0.066097751 -0.091910295 0.63470721
-0.066765785 -0.083995663 0.63469845
-0.059766199 -0.083995722 0.63469893
-0.055458747 -0.083995782 0.63469917
0.055459358 -0.083996691 0.63470614
0.0597669 -0.083996736 0.6347065
0.066453621 -0.083808966 0.63470668
-0.066558652 -0.076084785 0.63469797
-0.059766151 -0.075919159 0.63469869
-0.055458702 -0.075919196 0.63469857
0.055459313 -0.075920038 0.63470566
0.059766863 -0.075920075 0.63470614
0.066766635 -0.07592012 0.63470638
-0.066172041 -0.067939214 0.63469732
-0.059766103 -0.067842595 0.63469785
-0.054847587 -0.066916957 0.6351108
0.0548179 -0.066879995 0.63476175
0.059766818 -0.067843407 0.63470513
0.066478573 -0.068131454 0.63470596
-0.065252915 -0.060278825 0.63469696
-0.05976605 -0.059766069 0.63469714
-0.05363889 -0.059455827 0.63483185
0.0536456 -0.059463505 0.6349147
0.059766769 -0.05976674 0.63470477
0.065253757 -0.060279597 0.63470536
-0.064288825 -0.054166306 0.63469678
-0.059766024 -0.052227955 0.6346969
-0.052348237 -0.052073769 0.63477129
-0.047561586 -0.04935636 0.6346975
0.047651779 -0.049805533 0.63470358
0.052491777 -0.052013163 0.63470417
0.059766721 -0.052228589 0.63470453
0.064381957 -0.053767003 0.63470489
-0.058627579 -0.044966776 0.6346966
-0.052227955 -0.044151463 0.63469696
-0.045235798 -0.043424983 0.63480681
0.04531952 -0.0434414 0.63474679
0.052228507 -0.044151921 0.63470364
0.058658127 -0.045133825 0.63470387
-0.056535367 -0.039305542 0.63469636
-0.051689494 -0.036532618 0.63469666
-0.044151463 -0.036074989 0.63469696
-0.036839236 -0.034998138 0.6346972
-0.031408597 -0.033203375 0.63469756
0.03140879 -0.033203576 0.63470149
0.036815621 -0.035065699 0.63470191
0.04415185 -0.036075298 0.63470268
0.051729418 -0.036469296 0.6347028
0.056536 -0.039305981 0.63470346
-0.049612664 -0.030690623 0.6346963
-0.043633714 -0.028640456 0.63469666
-0.036074989 -0.027998496 0.63469696
-0.028417297 -0.027440138 0.63469708
-0.020180479 -0.025650959 0.63469785
-0.013460839 -0.024588468 0.63469815
0.013460876 -0.024588533 0.63469982
0.020294877 -0.025762064 0.63470042
0.028417455 -0.027440293 0.63470089
0.036075242 -0.027998699 0.63470131
0.043634091 -0.028640695 0.63470209
0.049766988 -0.030844763 0.63470256
-0.040920839 -0.023152579 0.63469636
-0.035382692 -0.021306535 0.63469666
-0.027998501 -0.019922009 0.63469696
-0.019922022 -0.01992202 0.63469732
-0.011845535 -0.019922048 0.63469779
-0.0037690359 -0.019922055 0.63469869
0.0037690403 -0.019922072 0.63469893
0.011845564 -0.019922083 0.63469934
0.019922104 -0.0199221 0.63470018
0.02799865 -0.019922113 0.63470066
0.035310987 -0.020999011 0.63470095
0.040921167 -0.023152767 0.63470149
-0.026831562 -0.015300448 0.6350612
-0.01955213 -0.014084039 0.63480657
-0.01166605 -0.01310187 0.63469738
-0.0037690345 -0.012922406 0.63469815
0.0037690375 -0.012922416 0.63469875
0.011705095 -0.013039477 0.63469893
0.019549327 -0.014082142 0.6346997
0.026383327 -0.015255666 0.63470006
-0.026899427 -0.2325794 0.64711583
-0.020311821 -0.23276253 0.64711618
-0.012077311 -0.23276269 0.64711672
-0.0038427834 -0.23276292 0.6471172
0.0038427876 -0.23276308 0.64711773
0.01207734 -0.23276325 0.64711821
0.020311905 -0.23276344 0.64711875
0.026021209 -0.23243418 0.6471191
-0.050175518 -0.22474678 0.64711392
-0.043324448 -0.22580098 0.6471144
-0.035388306 -0.22725901 0.64711505
-0.027997348 -0.22782156 0.64711559
-0.020311814 -0.22782174 0.64711589
-0.012077304 -0.2278219 0.64711636
-0.0038427813 -0.22782211 0.64711726
0.0038427848 -0.2278222 0.64711756
0.012077333 -0.22782242 0.64711779
0.020311898 -0.22782262 0.64711827
0.027997499 -0.2278228 0.64711922
0.035509747 -0.22698501 0.64711946
0.04332481 -0.22580285 0.64711976
0.050688382 -0.22471237 0.64712018
-0.073561251 -0.21684101 0.64711195
-0.067427211 -0.21798684 0.64711237
-0.059570171 -0.21924493 0.64711297
-0.052151747 -0.22013529 0.64711362
-0.043917306 -0.22013552 0.64711392
-0.035682835 -0.22013564 0.64711434
-0.027997328 -0.22013582 0.64711517
-0.020311799 -0.220136 0.64711565
-0.012077297 -0.22013624 0.64711607
-0.003842779 -0.22013633 0.64711642
0.0038427827 -0.22013657 0.6471172
0.012077326 -0.22013678 0.64711761
0.020311883 -0.22013685 0.64711779
0.027997475 -0.22013709 0.64711833
0.035683084 -0.22013715 0.64711922
0.043917682 -0.22013733 0.64711952
0.052152283 -0.22013749 0.64711982
0.059590884 -0.21947889 0.64712059
0.067303993 -0.2182055 0.64712083
0.073013328 -0.2168441 0.64712113
-0.082302324 -0.20915517 0.64711094
-0.075962953 -0.21137412 0.64711171
-0.068071626 -0.2119004 0.64711231
-0.059837166 -0.21190044 0.64711249
-0.052151699 -0.2119007 0.6471132
-0.043917287 -0.21190079 0.64711374
-0.035682809 -0.21190099 0.64711386
-0.027997304 -0.21190111 0.64711428
-0.020311786 -0.21190131 0.64711505
-0.012077285 -0.21190146 0.64711553
-0.0038427762 -0.21190174 0.64711607
0.0038427799 -0.21190181 0.64711654
0.012077318 -0.21190202 0.64711732
0.020311862 -0.21190216 0.64711761
0.027997455 -0.21190237 0.64711773
0.035683066 -0.21190247 0.64711845
0.043917641 -0.21190265 0.64711881
0.05215225 -0.21190284 0.64711952
0.059837881 -0.21190299 0.64711994
0.06807252 -0.21190313 0.64712089
0.07583303 -0.21112971 0.64712113
0.082254373 -0.20906703 0.64712137
-0.096068442 -0.20037133 0.64710951
-0.090710618 -0.20217201 0.64711004
-0.083991364 -0.20366542 0.64711022
-0.076305933 -0.20366563 0.64711106
-0.068071522 -0.20366572 0.64711148
-0.059837133 -0.20366593 0.64711189
-0.05215168 -0.20366599 0.64711231
-0.043917242 -0.2036662 0.64711326
-0.035682786 -0.20366625 0.64711368
-0.027997281 -0.20366648 0.64711386
-0.020311767 -0.20366669 0.64711428
-0.012077277 -0.20366688 0.64711493
-0.0038427729 -0.20366694 0.64711565
0.0038427769 -0.20366709 0.64711577
0.012077304 -0.20366725 0.64711636
0.020311847 -0.20366746 0.64711732
0.027997436 -0.20366758 0.64711756
0.035683032 -0.20366782 0.64711779
0.043917615 -0.20366791 0.64711839
0.052152205 -0.2036681 0.64711928
0.059837837 -0.20366828 0.64711946
0.068072461 -0.20366845 0.64711994
0.076307103 -0.20366865 0.64712071
0.083924152 -0.20360006 0.64712119
0.090712234 -0.20217563 0.64712143
0.096070237 -0.20037507 0.64712161
-0.10521766 -0.19305152 0.6471085
-0.099052466 -0.19513489 0.64710903
-0.091676734 -0.19597968 0.64710975
-0.083991304 -0.19597976 0.64710999
-0.076305874 -0.19598 0.64711028
-0.068071492 -0.19598006 0.647111
-0.059837103 -0.19598027 0.64711177
-0.052151661 -0.19598043 0.64711195
-0.043917209 -0.19598058 0.64711249
-0.035682768 -0.1959807 0.64711332
-0.027997263 -0.19598083 0.64711374
-0.020311752 -0.19598101 0.64711386
-0.012077267 -0.19598113 0.64711434
-0.0038427701 -0.19598132 0.64711529
0.0038427741 -0.19598146 0.64711559
0.0120773 -0.19598158 0.64711607
0.020311834 -0.19598174 0.64711636
0.027997419 -0.19598188 0.64711732
0.035682999 -0.19598205 0.64711756
0.043917578 -0.19598219 0.64711779
0.052152168 -0.19598238 0.64711863
0.0598378 -0.19598256 0.64711922
0.068072401 -0.19598268 0.64711946
0.076307036 -0.1959828 0.64711982
0.083992682 -0.19598295 0.64712071
0.091678374 -0.19598308 0.64712125
0.099259503 -0.19522516 0.64712143
0.1056773 -0.19296399 0.64712179
-0.11297615 -0.18587816 0.6471076
-0.10777941 -0.18784931 0.64710802
-0.099911027 -0.1882939 0.64710855
-0.091676682 -0.18829398 0.64710915
-0.083991282 -0.18829416 0.64710975
-0.076305859 -0.18829422 0.64711004
-0.068071477 -0.18829444 0.64711028
-0.059837084 -0.18829454 0.6471113
-0.052151613 -0.18829474 0.64711171
-0.043917183 -0.18829486 0.64711207
-0.035682734 -0.18829507 0.64711237
-0.027997246 -0.1882951 0.64711332
-0.020311739 -0.18829526 0.64711374
-0.012077259 -0.1882955 0.64711392
-0.0038427687 -0.18829563 0.64711428
0.0038427713 -0.18829581 0.64711529
0.012077288 -0.18829581 0.64711553
0.020311819 -0.18829608 0.64711589
0.027997399 -0.18829621 0.64711636
0.03568298 -0.18829638 0.64711732
0.043917548 -0.18829651 0.64711761
0.052152131 -0.18829668 0.64711785
0.059837766 -0.18829684 0.64711845
0.068072364 -0.18829696 0.64711916
0.076306984 -0.18829709 0.64711958
0.083992645 -0.18829721 0.64711982
0.091678306 -0.18829733 0.64712083
0.099912964 -0.1882975 0.64712131
0.10779017 -0.1879402 0.64712149
0.11290544 -0.18536985 0.64712179
-0.12022224 -0.17621616 0.64710653
-0.11520682 -0.17943516 0.64710706
-0.1081453 -0.18005909 0.64710754
-0.099910945 -0.18005927 0.64710826
-0.091676593 -0.18005943 0.6471085
-0.08399123 -0.1800596 0.64710915
-0.076305822 -0.18005975 0.64710981
-0.068071432 -0.18005988 0.64710999
-0.059837032 -0.18005998 0.64711028
-0.052151579 -0.1800601 0.64711106
-0.043917123 -0.1800603 0.64711142
-0.035682693 -0.18006037 0.64711219
-0.027997226 -0.18006063 0.64711249
-0.020311724 -0.18006071 0.64711332
-0.012077251 -0.18006086 0.64711374
-0.0038427666 -0.18006094 0.64711392
0.003842769 -0.18006112 0.6471144
0.012077278 -0.18006125 0.64711493
0.020311806 -0.18006137 0.64711571
0.027997375 -0.18006146 0.64711607
0.035682958 -0.18006162 0.64711666
0.043917526 -0.18006182 0.64711738
0.052152097 -0.18006195 0.64711761
0.059837703 -0.18006207 0.64711779
0.068072312 -0.18006226 0.64711851
0.076306939 -0.18006234 0.64711916
0.083992586 -0.18006253 0.64711982
0.091678254 -0.18006264 0.64712006
0.099912889 -0.18006276 0.64712095
0.10814757 -0.18006292 0.64712137
0.11505666 -0.17932664 0.64712143
0.12022505 -0.17622028 0.64712167
-0.12210429 -0.17111857 0.64710617
-0.11583058 -0.17182451 0.64710635
-0.10814518 -0.17182457 0.64710689
-0.099910893 -0.17182474 0.64710754
-0.091676511 -0.1718249 0.64710802
-0.083991103 -0.17182501 0.64710826
-0.076305687 -0.17182514 0.64710891
-0.068071343 -0.17182526 0.64710969
-0.059836939 -0.17182542 0.64711004
-0.052151516 -0.17182559 0.64711028
-0.04391709 -0.17182572 0.64711112
-0.035682682 -0.17182581 0.64711183
-0.027997198 -0.17182598 0.64711195
-0.020311706 -0.17182606 0.64711231
-0.012077242 -0.17182615 0.64711326
-0.0038427601 -0.17182632 0.64711374
0.0038427664 -0.17182648 0.64711386
0.012077271 -0.1718266 0.6471144
0.020311788 -0.17182675 0.64711529
0.027997345 -0.17182688 0.64711565
0.035682928 -0.171827 0.64711589
0.043917481 -0.17182718 0.64711678
0.052152056 -0.17182727 0.64711732
0.059837662 -0.17182745 0.64711756
0.068072252 -0.17182754 0.64711779
0.076306865 -0.1718277 0.64711881
0.083992511 -0.17182784 0.64711934
0.09167818 -0.17182791 0.64711958
0.099912822 -0.17182805 0.64712006
0.10814747 -0.17182826 0.64712077
0.11583316 -0.17182831 0.64712131
0.12209558 -0.17101516 0.64712143
-0.12969151 -0.16208008 0.64710504
-0.12392244 -0.16403712 0.64710587
-0.11583046 -0.16413887 0.64710611
-0.10814511 -0.16413906 0.64710629
-0.099910803 -0.1641392 0.64710695
-0.091676481 -0.1641393 0.64710784
-0.083991058 -0.16413943 0.64710802
-0.076305665 -0.16413954 0.64710838
-0.068071291 -0.16413972 0.64710903
-0.059836891 -0.16413981 0.64710981
-0.05215146 -0.16413994 0.64711004
-0.043917067 -0.16414006 0.64711034
-0.035682667 -0.16414015 0.64711136
-0.027997173 -0.16414033 0.64711171
-0.020311695 -0.16414046 0.64711195
-0.012077234 -0.1641406 0.64711267
-0.0038427571 -0.16414072 0.64711338
0.003842761 -0.16414084 0.64711368
0.012077262 -0.16414092 0.64711392
0.020311775 -0.16414107 0.6471144
0.027997328 -0.16414121 0.64711535
0.035682894 -0.16414133 0.64711565
0.043917455 -0.16414151 0.64711612
0.052152008 -0.1641416 0.64711666
0.05983761 -0.16414173 0.64711738
0.068072215 -0.16414186 0.64711761
0.07630682 -0.16414203 0.64711791
0.083992451 -0.1641421 0.64711863
0.091678105 -0.16414225 0.64711928
0.099912725 -0.16414237 0.6471197
0.1081474 -0.16414253 0.64712
0.11583309 -0.16414265 0.64712083
0.1239979 -0.16408288 0.64712131
0.12986252 -0.16206892 0.64712143
-0.13705648 -0.1524273 0.64710402
-0.13175 -0.15540293 0.64710444
-0.12406468 -0.15590432 0.64710516
-0.11583038 -0.15590441 0.64710581
-0.10814502 -0.15590455 0.64710611
-0.099910706 -0.15590465 0.64710629
-0.091676414 -0.15590477 0.64710718
-0.083991006 -0.15590487 0.6471076
-0.07630562 -0.15590501 0.64710802
-0.068071246 -0.15590514 0.64710867
-0.059836868 -0.15590528 0.64710909
-0.052151442 -0.15590534 0.64710987
-0.043917052 -0.15590549 0.64710999
-0.035682626 -0.15590562 0.64711028
-0.027997149 -0.15590572 0.64711124
-0.020311682 -0.15590584 0.64711154
-0.012077225 -0.15590593 0.64711225
-0.0038427548 -0.15590611 0.64711249
0.0038427578 -0.15590622 0.64711332
0.012077252 -0.15590629 0.64711368
0.020311758 -0.15590645 0.64711392
0.027997311 -0.15590659 0.6471144
0.035682876 -0.15590671 0.64711517
0.043917418 -0.15590681 0.64711565
0.052151959 -0.15590696 0.64711618
0.05983758 -0.15590705 0.64711672
0.06807217 -0.15590718 0.64711738
0.076306768 -0.15590732 0.64711761
0.083992369 -0.15590747 0.64711791
0.091678038 -0.15590753 0.64711851
0.099912673 -0.15590771 0.64711916
0.10814731 -0.15590782 0.64711964
0.115833 -0.15590791 0.64712012
0.12406767 -0.15590803 0.64712089
0.13192143 -0.15551603 0.64712131
0.13713335 -0.15294376 0.64712131
-0.13849413 -0.14712061 0.64710367
-0.13229884 -0.14766961 0.6471042
-0.12406459 -0.14766978 0.64710456
-0.1158303 -0.14766991 0.64710498
-0.10814496 -0.14767003 0.64710575
-0.099910632 -0.14767011 0.64710611
-0.091676295 -0.14767019 0.64710635
-0.083990954 -0.14767036 0.64710706
-0.076305591 -0.14767045 0.64710778
-0.068071231 -0.1476706 0.64710796
-0.05983685 -0.14767073 0.64710832
-0.052151423 -0.14767082 0.64710921
-0.04391703 -0.14767091 0.64710969
-0.035682581 -0.14767104 0.64710999
-0.0282642 -0.1485614 0.64711046
-0.020915523 -0.14981224 0.64711106
-0.014822037 -0.1509652 0.64711165
0.014602492 -0.15074602 0.64711344
0.020750921 -0.14986776 0.6471138
0.028310988 -0.14870715 0.64711404
0.03568285 -0.14767206 0.6471144
0.043917388 -0.14767218 0.64711511
0.052151933 -0.14767233 0.64711565
0.059837531 -0.14767241 0.64711589
0.068072103 -0.14767256 0.6471166
0.076306693 -0.1476727 0.64711738
0.083992325 -0.14767276 0.64711756
0.091677956 -0.14767288 0.64711791
0.099912599 -0.14767301 0.64711869
0.10814724 -0.14767317 0.64711928
0.11583291 -0.14767323 0.64711952
0.12406757 -0.14767337 0.64712012
0.13230224 -0.14767349 0.64712083
0.13825658 -0.14729351 0.64712113
-0.13969129 -0.13983765 0.64710301
-0.13229875 -0.13998415 0.64710379
-0.1240645 -0.13998422 0.64710397
-0.11583021 -0.13998437 0.64710444
-0.10814489 -0.13998447 0.64710492
-0.099910572 -0.13998459 0.64710581
-0.091676243 -0.13998471 0.64710617
-0.083990864 -0.13998483 0.64710635
-0.076305524 -0.13998492 0.64710724
-0.068071172 -0.13998501 0.64710766
-0.059836797 -0.13998519 0.64710808
-0.052151367 -0.13998522 0.64710838
-0.044290256 -0.14029273 0.64710915
-0.037578985 -0.14228114 0.64710963
0.037421227 -0.14227386 0.64711434
0.044290651 -0.14029396 0.64711469
0.0521519 -0.13998666 0.64711535
0.059837487 -0.1399868 0.64711565
0.068072051 -0.13998686 0.64711607
0.076306634 -0.13998699 0.64711684
0.083992258 -0.13998711 0.64711744
0.091677889 -0.1399872 0.64711767
0.099912517 -0.1399873 0.64711791
0.10814717 -0.13998744 0.64711881
0.11583283 -0.1399875 0.64711934
0.12406749 -0.13998763 0.64711964
0.13230217 -0.13998774 0.64711994
0.13949117 -0.13972643 0.64712083
-0.14492448 -0.13147505 0.6471023
-0.13998395 -0.13229857 0.64710253
-0.13229865 -0.13229866 0.64710289
-0.12406439 -0.13229875 0.64710367
-0.11583014 -0.1322989 0.6471042
-0.10814481 -0.13229901 0.64710438
-0.099910505 -0.13229911 0.64710516
-0.091676198 -0.13229915 0.64710593
-0.083990827 -0.13229926 0.64710617
-0.076305412 -0.13229941 0.64710635
-0.06807106 -0.13229951 0.64710701
-0.059836749 -0.1322996 0.64710784
-0.052714355 -0.13286272 0.64710808
-0.047027722 -0.13486159 0.64710855
-0.024913302 -0.12856403 0.64307529
-0.020122059 -0.1301998 0.64397246
-0.012202087 -0.13286068 0.64406872
-0.0038251763 -0.13389985 0.64424217
0.0038295202 -0.13401447 0.64479363
0.012264097 -0.13272859 0.64386803
0.019820245 -0.13039885 0.64413601
0.02515601 -0.12850848 0.6446265
0.046881769 -0.13515562 0.64711457
0.05271491 -0.1328641 0.64711469
0.059837431 -0.13230115 0.64711541
0.068072006 -0.13230123 0.64711583
0.076306589 -0.13230133 0.64711612
0.083992206 -0.13230145 0.64711684
0.09167783 -0.13230155 0.64711744
0.09991245 -0.13230164 0.64711761
0.10814708 -0.13230175 0.64711803
0.11583275 -0.13230182 0.64711881
0.12406738 -0.13230196 0.64711922
0.13230206 -0.13230209 0.64711958
0.13998775 -0.13230217 0.64711994
0.14474557 -0.13120426 0.64712042
-0.14603996 -0.12358594 0.64710182
-0.13998383 -0.12406413 0.64710224
-0.13229856 -0.12406421 0.64710242
-0.12406429 -0.12406428 0.64710283
-0.11583006 -0.12406444 0.64710379
-0.10814471 -0.12406451 0.64710397
-0.099910431 -0.1240646 0.6471048
-0.091676131 -0.12406474 0.6471051
-0.083990775 -0.12406481 0.64710587
-0.076305382 -0.12406491 0.64710611
-0.068071023 -0.12406495 0.64710629
-0.060116544 -0.12435569 0.6471073
-0.055005886 -0.12702957 0.6471076
-0.034432828 -0.12188312 0.64428574
-0.028834645 -0.12608145 0.64402002
0.029082086 -0.12575188 0.64380419
0.034572687 -0.12188785 0.6443153
0.054713693 -0.12717731 0.64711452
0.060144812 -0.12443986 0.64711469
0.068071947 -0.12406665 0.64711505
0.076306529 -0.12406673 0.64711571
0.083992139 -0.12406679 0.64711618
0.091677748 -0.1240669 0.64711696
0.099912353 -0.12406701 0.6471175
0.10814697 -0.12406712 0.64711767
0.11583264 -0.12406725 0.64711797
0.12406729 -0.12406728 0.64711863
0.13230196 -0.12406737 0.64711916
0.13998763 -0.12406749 0.64711964
0.14612935 -0.12355291 0.64712
-0.14731966 -0.11560503 0.64710093
-0.13998376 -0.11582967 0.64710182
-0.13229845 -0.11582979 0.64710224
-0.12406422 -0.11582987 0.64710248
-0.11582995 -0.11582997 0.64710295
-0.10814463 -0.11583005 0.64710385
-0.099910364 -0.11583014 0.6471042
-0.091676034 -0.11583024 0.64710444
-0.083990693 -0.1158303 0.64710498
-0.076305367 -0.11583038 0.64710587
-0.068071 -0.11583053 0.64710617
-0.062123973 -0.11756894 0.64710671
-0.042072792 -0.11474943 0.64411819
-0.038804702 -0.11860442 0.64428675
0.038766757 -0.11875637 0.64363086
0.041852094 -0.11484776 0.64406312
0.062133048 -0.1177284 0.64711434
0.068071909 -0.11583205 0.64711457
0.07630647 -0.11583214 0.64711547
0.083992071 -0.1158322 0.64711571
0.091677688 -0.11583229 0.64711601
0.099912278 -0.11583238 0.64711684
0.10814691 -0.11583246 0.6471175
0.11583255 -0.11583253 0.64711767
0.1240672 -0.11583263 0.64711797
0.13230185 -0.11583274 0.64711893
0.13998754 -0.11583284 0.64711934
0.14745843 -0.1156897 0.64711958
0.15206502 -0.1125391 0.64711976
-0.15242642 -0.10704616 0.64710021
-0.1476689 -0.10814413 0.64710051
-0.13998365 -0.10814425 0.64710081
-0.13229834 -0.10814428 0.64710188
-0.12406411 -0.10814442 0.6471023
-0.11582986 -0.10814445 0.64710253
-0.10814454 -0.10814456 0.64710307
-0.099910274 -0.10814463 0.64710373
-0.091675989 -0.10814472 0.64710426
-0.083990611 -0.1081448 0.64710444
-0.076305278 -0.10814489 0.64710504
-0.068969265 -0.10836957 0.64710581
-0.049104176 -0.10475783 0.64315754
-0.045907024 -0.10930108 0.64422369
0.045831311 -0.10953996 0.6442517
0.048908416 -0.10527173 0.64297134
0.068970174 -0.10837102 0.64711404
0.076306395 -0.10814649 0.64711475
0.083992012 -0.10814659 0.64711547
0.091677628 -0.10814669 0.64711571
0.099912211 -0.10814676 0.64711612
0.10814682 -0.10814683 0.64711672
0.11583246 -0.10814691 0.6471175
0.12406711 -0.10814699 0.64711767
0.13230175 -0.10814707 0.64711803
0.13998745 -0.10814717 0.64711899
0.14767314 -0.10814724 0.6471194
0.15277077 -0.10736305 0.64711952
-0.15315823 -0.099909671 0.64709973
-0.14766876 -0.099909723 0.64710015
-0.13998351 -0.099909827 0.64710063
-0.13229825 -0.099909849 0.64710104
-0.12406403 -0.099909954 0.64710188
-0.11582977 -0.099910066 0.6471023
-0.10814447 -0.099910095 0.64710248
-0.0999102 -0.0999102 0.64710289
-0.09167593 -0.099910274 0.64710373
-0.083990566 -0.099910334 0.64710408
-0.076305196 -0.099910446 0.64710468
-0.070249021 -0.1003886 0.64710492
-0.05109432 -0.099929191 0.64368689
0.050865363 -0.10027689 0.64474201
0.070249982 -0.10038998 0.6471138
0.076306351 -0.099911883 0.64711398
0.083991945 -0.099912003 0.64711446
0.091677561 -0.099912085 0.64711523
0.099912144 -0.099912152 0.64711559
0.10814673 -0.099912226 0.64711618
0.11583238 -0.099912278 0.64711678
0.12406699 -0.09991236 0.6471175
0.13230166 -0.099912502 0.64711767
0.13998733 -0.099912517 0.64711797
0.14767303 -0.099912606 0.64711869
0.15316279 -0.099912651 0.6471191
-0.15315814 -0.091675282 0.64709938
-0.14766866 -0.091675319 0.64709979
-0.13998342 -0.091675438 0.64710033
-0.13229814 -0.091675505 0.64710051
-0.12406392 -0.091675572 0.64710099
-0.1158297 -0.091675624 0.64710194
-0.10814438 -0.091675721 0.64710224
-0.099910103 -0.091675766 0.64710248
-0.091675818 -0.091675825 0.64710307
-0.083990537 -0.091675952 0.64710391
-0.076305144 -0.091675989 0.6471042
-0.071364574 -0.092499465 0.64710456
-0.053590879 -0.091868363 0.6446175
0.05381611 -0.091636479 0.64296669
0.071365558 -0.091677293 0.64711338
0.076306306 -0.091677338 0.64711374
0.083991878 -0.091677435 0.64711404
0.091677472 -0.091677479 0.64711446
0.099912062 -0.091677547 0.64711523
0.10814665 -0.091677614 0.64711571
0.11583229 -0.091677688 0.64711601
0.1240669 -0.091677748 0.64711702
0.13230157 -0.091677845 0.64711738
0.13998723 -0.091677919 0.64711767
0.14767292 -0.091677964 0.64711797
0.1531627 -0.091678016 0.64711863
-0.15315801 -0.083989866 0.64709878
-0.14766857 -0.083989903 0.6470989
-0.1399833 -0.083989993 0.64709985
-0.13229807 -0.083990067 0.64710033
-0.12406381 -0.083990119 0.64710063
-0.1158296 -0.083990149 0.64710093
-0.10814429 -0.083990283 0.64710182
-0.099910036 -0.083990328 0.64710224
-0.091675766 -0.083990358 0.64710253
-0.083990447 -0.08399044 0.64710307
-0.076305129 -0.083990544 0.64710397
-0.071913473 -0.083990537 0.64710397
-0.055078529 -0.083980747 0.6428299
0.054970011 -0.08381398 0.6415633
0.071585096 -0.084650472 0.64711303
0.076306239 -0.083991751 0.6471135
0.083991803 -0.083991818 0.6471138
0.091677435 -0.083991878 0.64711404
0.099911995 -0.08399193 0.64711457
0.10814659 -0.083992004 0.64711547
0.11583221 -0.083992079 0.64711565
0.12406682 -0.083992146 0.64711612
0.13230145 -0.08399222 0.64711708
0.13998714 -0.08399228 0.64711744
0.14767279 -0.083992325 0.64711767
0.15316258 -0.083992377 0.64711809
-0.15315792 -0.076304458 0.64709842
-0.14766847 -0.07630448 0.6470986
-0.13998322 -0.0763046 0.64709902
-0.13229795 -0.076304652 0.64709979
-0.12406375 -0.076304674 0.64710009
-0.1158295 -0.076304726 0.64710063
-0.10814422 -0.076304838 0.64710104
-0.099909976 -0.076304898 0.64710194
-0.091675729 -0.07630492 0.64710236
-0.083990358 -0.076304965 0.64710253
-0.076305054 -0.076305062 0.64710307
-0.071514182 -0.075706221 0.64710349
-0.054982502 -0.075670317 0.64170903
0.055091407 -0.075817578 0.64298016
0.071914427 -0.076306149 0.64711255
0.076306164 -0.076306164 0.64711285
0.083991751 -0.076306246 0.6471135
0.091677345 -0.076306306 0.64711374
0.099911913 -0.076306365 0.64711416
0.10814651 -0.076306403 0.64711493
0.11583214 -0.07630647 0.64711553
0.12406673 -0.076306529 0.64711601
0.13230138 -0.076306604 0.64711607
0.13998704 -0.076306641 0.6471169
0.14767271 -0.076306731 0.64711744
0.15316249 -0.07630676 0.64711773
-0.15315777 -0.068070136 0.64709783
-0.14766836 -0.068070173 0.64709842
-0.13998309 -0.068070248 0.6470986
-0.13229786 -0.068070285 0.64709896
-0.12406365 -0.0680703 0.64709949
-0.11582941 -0.068070337 0.64710009
-0.10814413 -0.068070456 0.64710063
-0.099909879 -0.068070509 0.64710146
-0.091675647 -0.068070531 0.647102
-0.083990313 -0.068070568 0.6471023
-0.076304972 -0.068070635 0.64710242
-0.071181431 -0.067704685 0.64710307
-0.054665972 -0.069554754 0.64227343
0.054647952 -0.06953647 0.64204198
0.071255609 -0.067083471 0.64711189
0.07630612 -0.068071656 0.64711231
0.083991699 -0.068071701 0.64711297
0.091677286 -0.06807173 0.6471135
0.099911839 -0.068071805 0.6471138
0.10814642 -0.068071857 0.64711398
0.11583204 -0.068071924 0.64711475
0.12406665 -0.068071947 0.64711511
0.13230126 -0.068072006 0.64711589
0.13998692 -0.068072066 0.64711624
0.14767258 -0.068072118 0.64711714
0.15316235 -0.068072163 0.6471172
-0.15315768 -0.059835792 0.64709741
-0.14766824 -0.059835833 0.64709783
-0.139983 -0.059835892 0.64709836
-0.13229775 -0.059835915 0.64709854
-0.12406357 -0.059835937 0.6470989
-0.11582931 -0.059836 0.64709997
-0.10814406 -0.059836075 0.64710039
-0.099909827 -0.059836119 0.64710075
-0.091675565 -0.059836149 0.64710104
-0.083990261 -0.059836175 0.64710194
-0.07630492 -0.059836224 0.6471023
-0.070046879 -0.059506893 0.64710248
-0.051906865 -0.060650215 0.64406699
0.051988263 -0.060740929 0.64510697
0.070047818 -0.059507716 0.64711136
0.07630609 -0.059837129 0.64711195
0.083991617 -0.059837166 0.64711207
0.091677219 -0.059837203 0.64711273
0.099911764 -0.059837285 0.6471135
0.10814634 -0.059837326 0.64711374
0.11583196 -0.059837338 0.6471141
0.12406655 -0.05983742 0.64711481
0.13230117 -0.059837449 0.64711553
0.13998683 -0.059837516 0.64711577
0.14767247 -0.059837554 0.64711601
0.15316223 -0.059837591 0.64711666
-0.15297458 -0.052516397 0.64709687
-0.14766812 -0.052150469 0.64709693
-0.13998289 -0.052150492 0.647098
-0.13229766 -0.052150514 0.64709836
-0.12406347 -0.052150551 0.64709866
-0.11582925 -0.052150603 0.64709902
-0.10814399 -0.052150659 0.64709985
-0.099909745 -0.052150715 0.64710009
-0.091675505 -0.052150726 0.64710063
-0.083990186 -0.05215076 0.64710116
-0.076304883 -0.052150805 0.64710194
-0.068736315 -0.051940612 0.6471023
-0.049635306 -0.05399885 0.64296067
0.047469866 -0.050743647 0.64318192
0.050506223 -0.055937 0.64017254
0.068969794 -0.05192697 0.6471107
0.076306015 -0.052151591 0.64711159
0.083991557 -0.052151643 0.64711189
0.091677159 -0.052151665 0.64711201
0.099911697 -0.052151706 0.64711279
0.10814626 -0.052151728 0.64711362
0.11583187 -0.052151788 0.6471138
0.12406646 -0.052151836 0.64711422
0.13230106 -0.052151881 0.64711499
0.13998669 -0.052151918 0.64711553
0.14767237 -0.052151944 0.64711577
0.15277003 -0.052936222 0.64711624
-0.1520596 -0.046660889 0.64709663
-0.14754602 -0.044038124 0.64709687
-0.1399828 -0.043916166 0.64709717
-0.13229756 -0.043916199 0.64709795
-0.12406336 -0.043916248 0.64709848
-0.11582918 -0.043916274 0.6470986
-0.10814389 -0.043916315 0.64709908
-0.099909686 -0.043916345 0.64709967
-0.091675445 -0.043916356 0.64710015
-0.083990112 -0.043916401 0.64710057
-0.076304816 -0.043916438 0.64710122
-0.068070531 -0.043916494 0.647102
-0.061727073 -0.042025648 0.64710212
0.042303734 -0.043402534 0.64762419
0.061703421 -0.042270135 0.64710987
0.068071447 -0.04391706 0.6471101
0.076305933 -0.043917082 0.64711058
0.083991505 -0.04391712 0.64711142
0.09167707 -0.043917153 0.64711177
0.099911623 -0.043917187 0.64711249
0.10814618 -0.043917242 0.64711303
0.11583178 -0.043917265 0.64711362
0.12406637 -0.043917302 0.64711386
0.13230097 -0.043917332 0.64711422
0.1399866 -0.043917362 0.64711487
0.14748579 -0.044072758 0.64711553
0.15206409 -0.047211237 0.64711583
-0.1464702 -0.035981264 0.64709646
-0.13998269 -0.035681859 0.64709669
-0.13229746 -0.035681881 0.64709699
-0.12406326 -0.035681922 0.64709795
-0.11582907 -0.035681952 0.64709836
-0.10814381 -0.035681967 0.6470986
-0.099909604 -0.035681985 0.64709896
-0.091675349 -0.035682023 0.64710003
-0.083990075 -0.035682067 0.64710039
-0.076304734 -0.035682082 0.64710057
-0.068070501 -0.035682097 0.64710122
-0.059976339 -0.035565332 0.647102
-0.05475837 -0.033623561 0.64710194
0.054817773 -0.033486675 0.64710891
0.05997704 -0.035565749 0.64710957
0.068071403 -0.035682578 0.64710993
0.076305881 -0.035682615 0.64711016
0.083991461 -0.035682634 0.6471107
0.091676988 -0.035682674 0.64711171
0.099911556 -0.035682693 0.64711171
0.10814609 -0.035682715 0.64711213
0.11583169 -0.035682756 0.64711279
0.12406629 -0.035682783 0.64711362
0.13230085 -0.035682812 0.6471138
0.1399865 -0.035682835 0.6471141
0.14629085 -0.035895362 0.64711469
-0.14519756 -0.028614072 0.64709598
-0.1399826 -0.02799651 0.64709646
-0.13229737 -0.027996538 0.64709669
-0.12406319 -0.027996553 0.64709723
-0.115829 -0.027996579 0.64709795
-0.10814374 -0.027996603 0.64709842
-0.099909529 -0.027996629 0.6470986
-0.091675289 -0.027996654 0.6470992
-0.083990008 -0.027996665 0.64710003
-0.076304689 -0.027996678 0.64710039
-0.068070449 -0.02799671 0.64710063
-0.059836149 -0.027996738 0.64710122
-0.052569062 -0.027604649 0.64710188
-0.046524033 -0.025389222 0.647102
0.046524458 -0.025389453 0.64710784
0.052543469 -0.02757878 0.6471082
0.059836864 -0.027997063 0.64710855
0.068071336 -0.02799709 0.64710963
0.076305844 -0.02799711 0.64710999
0.083991371 -0.027997127 0.64711016
0.091676943 -0.027997145 0.6471107
0.099911489 -0.027997172 0.64711142
0.108146 -0.02799719 0.64711189
0.11583161 -0.027997209 0.64711207
0.1240662 -0.027997239 0.64711297
0.13230076 -0.027997253 0.64711356
0.13998637 -0.027997272 0.6471138
0.14520165 -0.028614881 0.64711428
-0.14437407 -0.023604887 0.64709574
-0.13976766 -0.02045439 0.64709604
-0.13229728 -0.020311199 0.64709646
-0.12406311 -0.020311218 0.64709675
-0.1158289 -0.020311235 0.64709705
-0.10814365 -0.020311248 0.64709783
-0.099909469 -0.020311261 0.64709848
-0.091675244 -0.020311281 0.6470986
-0.083989933 -0.020311294 0.64709914
-0.076304652 -0.020311305 0.64710003
-0.068070367 -0.020311326 0.64710045
-0.059836123 -0.020311343 0.64710069
-0.052150764 -0.020311356 0.64710122
-0.044148717 -0.020079117 0.64710206
-0.03698593 -0.018184178 0.64710224
0.037371524 -0.018115688 0.64710683
0.044149101 -0.020079285 0.64710754
0.052151311 -0.020311562 0.64710802
0.059836827 -0.020311575 0.64710826
0.068071268 -0.020311596 0.64710891
0.076305807 -0.020311613 0.64710963
0.083991311 -0.02031162 0.64710999
0.091676868 -0.020311642 0.64711016
0.099911399 -0.020311655 0.64711088
0.10814594 -0.020311674 0.64711159
0.11583153 -0.020311691 0.64711189
0.1240661 -0.020311708 0.64711237
0.13230065 -0.020311724 0.64711303
0.13991766 -0.020380359 0.64711362
0.14437813 -0.023056582 0.64711392
-0.13848525 -0.012526055 0.64709532
-0.13229717 -0.012076917 0.64709568
-0.12406301 -0.01207693 0.64709604
-0.11582883 -0.012076939 0.64709693
-0.10814358 -0.01207695 0.64709729
-0.099909388 -0.012076953 0.64709812
-0.091675162 -0.012076967 0.64709854
-0.083989874 -0.01207698 0.64709866
-0.076304607 -0.012076982 0.64709914
-0.068070315 -0.012076994 0.64709967
-0.059836071 -0.012077007 0.64710027
-0.052150737 -0.012077017 0.64710087
-0.043916453 -0.01207703 0.64710152
-0.035682149 -0.012077033 0.64710206
-0.028139679 -0.011313114 0.64709526
-0.020640772 -0.010100807 0.64710259
-0.01250379 -0.00903669 0.64664829
-0.003840416 -0.0087801786 0.64688575
0.0038427063 -0.0087833274 0.6471042
0.012443059 -0.0089663221 0.6471048
0.020640854 -0.010100844 0.6471054
0.028207161 -0.011411344 0.64710611
0.035682399 -0.012077114 0.64710617
0.043916821 -0.012077124 0.64710665
0.052151255 -0.012077133 0.64710754
0.059836764 -0.012077152 0.6471079
0.068071254 -0.012077156 0.64710867
0.07630571 -0.012077166 0.64710891
0.083991252 -0.012077174 0.64710963
0.091676779 -0.012077183 0.64710993
0.099911325 -0.012077194 0.64711016
0.10814585 -0.012077197 0.64711082
0.11583144 -0.012077213 0.64711136
0.12406599 -0.012077218 0.64711195
0.13230056 -0.012077234 0.64711243
0.13885938 -0.012568417 0.64711303
-0.1373748 -0.0059012156 0.64709508
-0.13222846 -0.0039112722 0.64709502
-0.12406291 -0.0038426542 0.6470958
-0.11582874 -0.0038426591 0.64709657
-0.10814349 -0.003842664 0.64709669
-0.099909298 -0.0038426674 0.64709729
-0.091675088 -0.0038426688 0.64709806
-0.083989836 -0.0038426723 0.64709848
-0.076304525 -0.0038426744 0.6470986
-0.068070285 -0.0038426777 0.64709908
-0.059836011 -0.0038426796 0.64710015
-0.052150711 -0.0038426844 0.64710045
-0.043916401 -0.003842687 0.64710087
-0.035682108 -0.0038426898 0.6471014
-0.027996764 -0.0038426926 0.64710206
-0.020311387 -0.0038426954 0.64710236
-0.012077049 -0.0038426986 0.64710253
-0.0038427012 -0.0038427021 0.64710349
0.0038427047 -0.0038427045 0.64710408
0.012077085 -0.0038427089 0.64710432
0.020311473 -0.0038427114 0.64710468
0.027996905 -0.0038427126 0.64710557
0.03568235 -0.0038427161 0.64710599
0.043916799 -0.0038427187 0.64710623
0.052151218 -0.0038427233 0.64710665
0.059836723 -0.0038427266 0.6471076
0.068071216 -0.0038427277 0.6471079
0.076305635 -0.0038427312 0.6471082
0.083991207 -0.0038427352 0.64710891
0.091676719 -0.0038427373 0.64710957
0.099911235 -0.0038427401 0.64710993
0.10814577 -0.0038427429 0.64711016
0.11583134 -0.0038427471 0.64711082
0.12406589 -0.0038427501 0.64711148
0.13210952 -0.0040336964 0.64711195
0.13713145 -0.0062582009 0.64711243
-0.13043058 0.0027447511 0.64709502
-0.12406279 0.0038426523 0.64709508
-0.11582866 0.0038426556 0.64709604
-0.10814343 0.0038426586 0.64709657
-0.099909209 0.0038426644 0.64709693
-0.091675028 0.0038426644 0.64709711
-0.083989754 0.0038426686 0.64709806
-0.076304458 0.0038426714 0.64709848
-0.068070248 0.0038426735 0.64709866
-0.059835963 0.0038426756 0.64709938
-0.052150667 0.0038426805 0.64710009
-0.043916378 0.0038426821 0.64710027
-0.035682086 0.0038426865 0.64710069
-0.027996738 0.0038426889 0.64710134
-0.020311372 0.0038426907 0.64710206
-0.012077043 0.0038426961 0.64710236
-0.0038426975 0.0038426982 0.64710265
0.0038427021 0.0038427021 0.64710355
0.012077075 0.0038427038 0.64710408
0.020311464 0.0038427073 0.64710432
0.027996896 0.0038427105 0.64710468
0.035682332 0.0038427121 0.64710557
0.043916773 0.0038427154 0.64710611
0.052151199 0.0038427194 0.64710623
0.059836656 0.0038427224 0.64710665
0.068071134 0.0038427259 0.64710754
0.07630562 0.0038427275 0.64710802
0.08399111 0.0038427303 0.6471082
0.09167666 0.0038427333 0.64710873
0.099911168 0.0038427364 0.64710957
0.10814571 0.0038427394 0.64710999
0.11583124 0.0038427429 0.64711022
0.12406582 0.0038427452 0.64711088
0.13036285 0.0024218999 0.64711142
-0.12286028 0.01126655 0.64709485
-0.11582856 0.012076912 0.64709514
-0.10814334 0.01207692 0.6470958
-0.099909149 0.012076928 0.64709628
-0.091674946 0.012076939 0.64709693
-0.083989687 0.01207695 0.64709729
-0.076304413 0.012076956 0.64709812
-0.068070188 0.012076966 0.64709854
-0.059835918 0.012076976 0.64709866
-0.052150615 0.012076986 0.6470992
-0.043916352 0.012076993 0.64709979
-0.035682067 0.012077008 0.64710033
-0.027996719 0.012077012 0.64710081
-0.020311357 0.012077025 0.64710158
-0.012077032 0.012077029 0.64710212
-0.0038426952 0.012077044 0.64710236
0.0038426996 0.01207705 0.64710265
0.012077058 0.012077061 0.64710337
0.020311439 0.012077078 0.64710397
0.027996879 0.012077085 0.64710426
0.035682317 0.012077092 0.64710486
0.04391674 0.012077097 0.64710569
0.052151181 0.012077106 0.64710611
0.059836634 0.012077116 0.64710629
0.06807106 0.01207713 0.64710659
0.076305561 0.012077142 0.64710742
0.083991058 0.012077147 0.64710778
0.091676578 0.012077152 0.64710826
0.099911109 0.012077163 0.64710903
0.10814559 0.012077174 0.64710981
0.11583115 0.012077182 0.64710993
0.12279374 0.011260443 0.64711022
-0.12058602 0.017383417 0.64709473
-0.11547102 0.019953698 0.64709479
-0.10814326 0.020311167 0.64709502
-0.09990906 0.020311186 0.6470958
-0.091674872 0.020311201 0.64709651
-0.083989643 0.020311214 0.64709681
-0.076304361 0.020311229 0.64709723
-0.068070121 0.02031124 0.64709812
-0.0598359 0.020311262 0.64709848
-0.05215057 0.020311277 0.64709866
-0.043916319 0.0203113 0.6470992
-0.035682037 0.020311313 0.64710015
-0.027996689 0.02031133 0.64710039
-0.020311341 0.020311343 0.64710069
-0.012077021 0.020311354 0.64710134
-0.0038426926 0.020311372 0.64710212
0.0038426958 0.020311389 0.64710242
0.01207705 0.020311402 0.64710271
0.020311417 0.020311421 0.64710343
0.027996857 0.020311434 0.64710408
0.035682298 0.020311458 0.64710426
0.04391668 0.020311473 0.64710486
0.052151125 0.02031148 0.64710546
0.0598366 0.020311492 0.64710599
0.068071015 0.02031152 0.64710629
0.076305464 0.020311534 0.64710671
0.083991021 0.020311544 0.64710772
0.091676496 0.02031156 0.64710802
0.099911019 0.020311581 0.64710844
0.10814552 0.020311596 0.64710885
0.11550669 0.020037122 0.64710975
0.12049735 0.017841291 0.64710987
-0.11353283 0.026100075 0.64709467
-0.10807455 0.02792784 0.64709479
-0.099909008 0.027996475 0.64709514
-0.091674797 0.027996499 0.64709622
-0.083989568 0.027996523 0.64709657
-0.076304302 0.02799654 0.64709669
-0.068070069 0.027996566 0.64709747
-0.059835859 0.027996588 0.64709812
-0.052150533 0.027996603 0.64709848
-0.043916285 0.027996635 0.64709866
-0.035682008 0.027996652 0.64709938
-0.027996667 0.027996667 0.64710009
-0.020311326 0.027996693 0.64710045
-0.012077013 0.027996715 0.64710087
-0.0038426889 0.027996745 0.6471014
0.0038426926 0.027996765 0.64710218
0.012077041 0.027996782 0.64710242
0.020311413 0.027996795 0.64710265
0.027996819 0.027996818 0.64710343
0.035682239 0.027996844 0.64710414
0.043916654 0.027996877 0.64710438
0.05215108 0.027996892 0.64710474
0.059836552 0.027996905 0.64710557
0.068071 0.027996922 0.64710611
0.076305404 0.027996955 0.64710623
0.083990924 0.027996983 0.64710677
0.091676459 0.027997008 0.64710766
0.09991093 0.027997017 0.64710802
0.10807683 0.027928414 0.64710832
0.11355672 0.026585443 0.64710891
-0.10660607 0.033632334 0.64709467
-0.099676691 0.035449509 0.64709485
-0.091674745 0.03568178 0.6470952
-0.083989501 0.035681807 0.64709616
-0.076304227 0.03568184 0.64709657
-0.068070032 0.03568187 0.64709681
-0.059835788 0.035681896 0.64709723
-0.052150507 0.035681926 0.64709812
-0.043916255 0.035681952 0.64709848
-0.035681974 0.035681982 0.64709872
-0.027996657 0.035682 0.6470992
-0.020311315 0.035682045 0.64710015
-0.012077008 0.035682071 0.64710045
-0.0038426865 0.035682093 0.64710075
0.0038426907 0.035682108 0.64710164
0.012077035 0.035682146 0.64710224
0.020311402 0.035682186 0.64710242
0.027996801 0.035682198 0.64710277
0.03568222 0.035682216 0.64710361
0.043916617 0.035682254 0.64710391
0.052151032 0.035682302 0.64710438
0.059836488 0.035682321 0.64710486
0.068070963 0.035682328 0.64710569
0.076305382 0.035682358 0.64710611
0.08399085 0.035682414 0.64710635
0.091676384 0.035682436 0.64710677
0.09962023 0.035402585 0.64710766
0.10640699 0.033395141 0.64710802
-0.097301394 0.040759541 0.64709479
-0.091139123 0.042938635 0.64709485
-0.083989426 0.04391605 0.64709508
-0.076304197 0.043916069 0.64709586
-0.068069987 0.043916117 0.64709634
-0.059835739 0.043916147 0.64709699
-0.052150466 0.043916188 0.64709729
-0.043916218 0.043916233 0.64709812
-0.035681959 0.043916255 0.64709854
-0.027996629 0.043916304 0.64709866
-0.020311296 0.043916322 0.6470992
-0.012076995 0.043916356 0.64709985
-0.003842683 0.043916393 0.64710027
0.0038426875 0.043916408 0.64710093
0.01207703 0.043916449 0.64710182
0.020311374 0.043916497 0.64710224
0.02799678 0.043916542 0.64710242
0.035682201 0.043916572 0.64710265
0.043916587 0.043916587 0.64710331
0.052150976 0.043916609 0.64710397
0.059836429 0.043916654 0.64710444
0.068070874 0.04391668 0.64710516
0.076305345 0.043916736 0.64710575
0.083990812 0.043916773 0.64710611
0.091140725 0.042939391 0.64710629
0.097165987 0.040701497 0.64710701
-0.082891494 0.05018561 0.64709514
-0.076187335 0.052010145 0.64709514
-0.06806992 0.052150365 0.64709586
-0.059835702 0.052150391 0.64709657
-0.052150436 0.052150436 0.64709681
-0.043916184 0.052150466 0.64709741
-0.035681929 0.052150514 0.64709818
-0.027996611 0.052150536 0.64709854
-0.020311279 0.052150581 0.64709878
-0.012076988 0.052150637 0.64709932
-0.0038426805 0.052150678 0.64710015
0.0038426849 0.052150715 0.64710039
0.012077018 0.052150745 0.64710093
0.020311359 0.052150801 0.64710152
0.027996773 0.052150834 0.64710218
0.03568219 0.052150875 0.64710236
0.043916576 0.052150931 0.64710271
0.052150961 0.052150961 0.64710379
0.059836391 0.05215098 0.6471042
0.068070799 0.052151024 0.64710438
0.076236628 0.052082438 0.6471048
0.082992651 0.050404433 0.64710546
-0.07410831 0.057169262 0.6470952
-0.067520924 0.059025269 0.64709526
-0.059835669 0.059835661 0.64709622
-0.052150395 0.059835698 0.64709657
-0.043916143 0.059835754 0.64709693
-0.035681903 0.059835788 0.64709729
-0.027996588 0.059835874 0.64709824
-0.020311266 0.059835915 0.64709854
-0.012076979 0.059835929 0.64709872
-0.0038426777 0.059835974 0.64709967
0.0038426816 0.059836056 0.64710021
0.012077011 0.059836101 0.64710045
0.020311354 0.059836134 0.64710075
0.027996747 0.059836168 0.64710182
0.035682164 0.059836209 0.64710218
0.043916553 0.059836291 0.64710242
0.052150939 0.059836343 0.64710283
0.059836376 0.059836373 0.64710385
0.06769073 0.058738481 0.64710414
0.074548542 0.057311255 0.64710468
-0.058267213 0.064540945 0.64709574
-0.051627558 0.065429755 0.64709622
-0.043622497 0.066678479 0.64709663
-0.035557587 0.067852527 0.64709687
-0.027996566 0.068070076 0.64709747
-0.020311251 0.068070114 0.64709836
-0.012076968 0.068070203 0.64709854
-0.0038426744 0.068070263 0.64709872
0.0038426784 0.068070307 0.64709938
0.012077 0.068070322 0.64709985
0.020311339 0.068070404 0.64710057
0.027996732 0.068070479 0.64710099
0.035580449 0.067928195 0.64710182
0.043542199 0.066773027 0.64710224
0.051628079 0.065430418 0.64710259
0.057860076 0.064447567 0.64710313
-0.032388154 0.073010586 0.64709687
-0.027320921 0.073601805 0.64709723
-0.02031124 0.074108578 0.64709759
-0.012076963 0.07410863 0.64709812
-0.0038426723 0.074108705 0.64709866
0.0038426763 0.07410875 0.6470992
0.012076993 0.074108817 0.64709955
0.020311318 0.074108861 0.64710027
0.027379133 0.073834457 0.64710063
0.032937318 0.073011056 0.64710104
-0.025453301 -0.12837487 0.65228093
-0.020273499 -0.13014743 0.65233546
-0.011606997 -0.13302508 0.65164369
-0.0038726232 -0.13389875 0.65223438
0.0038770777 -0.13401483 0.65279979
0.011868238 -0.13285024 0.65189171
0.020465618 -0.13019951 0.65209049
0.0248606 -0.12872267 0.65122968
-0.034668788 -0.12170583 0.65212458
-0.029465497 -0.12560789 0.65227622
0.028991645 -0.1258146 0.65220082
0.034850501 -0.12169137 0.65205353
-0.042086031 -0.11473085 0.65155429
-0.038430415 -0.11888481 0.65181863
0.038694754 -0.11884587 0.65161061
0.041994929 -0.11465611 0.65136063
-0.048810583 -0.10517564 0.65138417
-0.046236224 -0.10883387 0.65218008
0.045885805 -0.10946614 0.65170407
0.048695482 -0.10569179 0.6522997
-0.051075187 -0.10002245 0.65140438
0.051166862 -0.099392958 0.65089774
-0.053484019 -0.09221486 0.65221184
0.053760037 -0.091765247 0.65164328
-0.055006266 -0.084115721 0.65495586
0.054968715 -0.083839856 0.65450889
-0.054989457 -0.076097913 0.65475577
0.055059291 -0.077861212 0.65558726
-0.054589126 -0.069276907 0.65328425
0.054329593 -0.068329744 0.65127665
-0.051960416 -0.060805187 0.65159518
0.051542949 -0.059298698 0.65333647
-0.049310274 -0.053738933 0.65315843
0.050046902 -0.05444663 0.64829236
-0.043388002 -0.045056738 0.65570927
0.044969816 -0.047190547 0.65444201
-0.025233237 -0.12842111 0.66105264
-0.019792676 -0.13031098 0.6597864
-0.012162823 -0.13288236 0.65992326
-0.003921126 -0.13389762 0.6604045
0.0039256955 -0.13401522 0.66098452
0.011885577 -0.13284448 0.66012794
0.019598505 -0.13046652 0.6600619
0.024774447 -0.12871413 0.65873271
-0.034483355 -0.12184455 0.66016144
-0.029325955 -0.12571199 0.66057611
0.029061923 -0.12576437 0.66020042
0.034339797 -0.12204979 0.65996951
-0.041968826 -0.11489751 0.6596244
-0.038643736 -0.11872362 0.66016012
0.038666178 -0.1187978 0.66056496
0.04200992 -0.11463472 0.66026348
-0.049003035 -0.10490271 0.65892595
-0.045666374 -0.10964421 0.65991908
0.045903999 -0.10944062 0.65989482
0.049075071 -0.10505836 0.65990204
-0.051144015 -0.099768817 0.66070467
0.051081024 -0.099642366 0.65988147
-0.053594626 -0.091856644 0.65945995
0.053751756 -0.091822147 0.66001803
-0.055127848 -0.085197814 0.6564036
0.055117209 -0.074046135 0.65627694
-0.053764518 -0.066085994 0.66017282
0.054219726 -0.068193629 0.65891099
-0.051433686 -0.059261009 0.65901124
0.051583655 -0.05943203 0.66094506
-0.049690407 -0.054156959 0.65813899
0.047692623 -0.05105916 0.66140485
0.050093081 -0.054595832 0.66347235
-0.024918377 -0.12856029 0.66759956
-0.01982756 -0.13029847 0.66780674
-0.011449362 -0.13309284 0.66818368
-0.0039710002 -0.13389646 0.6688056
0.00353524 -0.13400911 0.66724086
0.011487881 -0.13296665 0.66801792
0.019843113 -0.13039076 0.66828233
0.024933433 -0.12862653 0.66795969
-0.034077369 -0.12214869 0.6679365
-0.028759822 -0.12613586 0.66847986
0.028729126 -0.12599801 0.66775173
0.03458029 -0.12187951 0.66824359
-0.042190354 -0.11458278 0.66819805
-0.038025621 -0.11918765 0.66903538
0.038533535 -0.11899951 0.66797769
0.04188589 -0.11479878 0.66851056
-0.048974592 -0.10494385 0.66869229
-0.046220575 -0.10885721 0.66717243
0.046264697 -0.1089583 0.66779822
0.049042821 -0.10509118 0.66962665
-0.051168524 -0.099723503 0.66869628
0.051030353 -0.099788785 0.66837525
-0.053461742 -0.092287496 0.66740066
0.053544614 -0.092427358 0.66842651
-0.055069454 -0.084022492 0.66922802
0.054959364 -0.084420748 0.66789019
-0.054988157 -0.075964063 0.66824007
0.055084977 -0.076094948 0.66941667
-0.054642886 -0.069647931 0.66748792
0.054391347 -0.068561554 0.66784668
-0.052072179 -0.061128668 0.6671921
0.05162394 -0.059562501 0.66874599
-0.050306421 -0.055958826 0.66629797
0.042375162 -0.043505166 0.66601682
-0.025231436 -0.12845272 0.67598718
-0.02029546 -0.13013808 0.67580253
-0.012418292 -0.13279551 0.67570567
-0.0040220134 -0.13389526 0.6773988
0.004274271 -0.13401988 0.67536587
0.012506967 -0.13265201 0.6763407
0.020196507 -0.13028146 0.67588401
0.025233682 -0.12845832 0.67600763
-0.034800377 -0.12160608 0.67617923
-0.029404979 -0.12565152 0.67633921
0.029255919 -0.12562656 0.6762073
0.034522496 -0.12191921 0.67599994
-0.041857298 -0.11505579 0.67589504
-0.03870061 -0.11868116 0.67585045
0.038624581 -0.1188547 0.67553341
0.042078417 -0.11454079 0.67577744
-0.048676357 -0.10536812 0.6750474
-0.046112217 -0.1090116 0.67583025
0.045861602 -0.10949475 0.67576915
0.048782699 -0.10559826 0.67652208
-0.051052805 -0.10005695 0.67619032
0.051034898 -0.099773504 0.67594308
-0.053955179 -0.090688698 0.67661673
0.053946719 -0.091248535 0.6765058
-0.053921595 -0.066542 0.67618871
0.054046411 -0.067418404 0.67535335
-0.051533844 -0.059550699 0.67496765
0.051667236 -0.059702985 0.67672789
-0.049220692 -0.053226549 0.67466617
0.050141476 -0.054752186 0.6793803
-0.043546349 -0.04526525 0.67542052
0.045123417 -0.047408149 0.67330211
-0.025549375 -0.128332 0.68450689
-0.020109134 -0.13020131 0.68435496
-0.0124119 -0.13280326 0.68362069
-0.0040568071 -0.13389449 0.68325967
0.0040617059 -0.13401638 0.6838817
0.012061209 -0.13278899 0.68420863
0.019836392 -0.13039212 0.68374574
0.024924133 -0.12867579 0.68326104
-0.034436617 -0.12187833 0.68414742
-0.029437754 -0.12562636 0.6842373
0.028739167 -0.12598981 0.68440586
0.0347322 -0.12177079 0.68400699
-0.041730199 -0.11523626 0.68457836
-0.038306162 -0.11897664 0.68415308
0.03856593 -0.11889241 0.68365228
0.04196788 -0.11468688 0.68394274
-0.048928425 -0.1050106 0.68390507
-0.045821115 -0.1094254 0.68370658
0.046152532 -0.10910556 0.68290371
0.049002487 -0.10517047 0.68494231
-0.051180743 -0.099687949 0.68402255
0.051040124 -0.099756144 0.68369645
-0.053260721 -0.092941023 0.68390673
0.053610917 -0.092224285 0.68373668
-0.055085052 -0.084076986 0.68351066
0.054966729 -0.083895162 0.68204248
-0.05498714 -0.07582587 0.68229574
0.055085994 -0.07595925 0.68352234
-0.054605763 -0.069267593 0.68236691
0.05445385 -0.068939805 0.6828503
-0.051586177 -0.059702158 0.68323869
0.051709518 -0.059839841 0.68490881
0.047928371 -0.051393073 0.68069047
0.042449456 -0.043612454 0.68546355
-0.024670385 -0.12864292 0.69243157
-0.020270541 -0.1301458 0.69262069
-0.012121394 -0.13288631 0.69229573
-0.0041102199 -0.1338933 0.69225711
0.0034659447 -0.13400711 0.6920166
0.012332006 -0.13270506 0.69218218
0.020520713 -0.13018079 0.69124126
0.024692588 -0.12876126 0.69306862
-0.034466524 -0.12185533 0.69201052
-0.028623547 -0.12623622 0.69212836
0.028927023 -0.12585707 0.69188321
0.034491416 -0.12193958 0.69249237
-0.042266455 -0.11447448 0.69200534
-0.038236484 -0.11902844 0.69345361
0.038898882 -0.11865328 0.69127464
0.042220801 -0.11434833 0.6912477
-0.048622888 -0.10544527 0.69055414
