# .PCD v0.7 - Point Cloud Data file format
VERSION 0.7
FIELDS x y z
SIZE 4 4 4
TYPE F F F
COUNT 1 1 1
WIDTH 1084
HEIGHT 1
VIEWPOINT 0 0 0 1 0 0 0
POINTS 1084
DATA ascii
0.020277951 -0.21896456 0.65789062
0.028184483 -0.21849941 0.6578905
0.03372569 -0.2180609 0.6578905
-0.058920525 -0.20961037 0.65789306
-0.051638491 -0.21101888 0.65789264
-0.045173097 -0.21091491 0.65789241
0.01407022 -0.21105333 0.65789121
0.020091917 -0.21208137 0.65789062
0.028463541 -0.21208133 0.65789062
0.034044623 -0.21208125 0.65789062
-0.059020199 -0.20384994 0.65789318
-0.051904283 -0.20371035 0.6578927
-0.044090718 -0.20371029 0.65789264
-0.038199548 -0.20234595 0.65789276
0.012334217 -0.20331919 0.65789175
0.020091925 -0.20370983 0.65789121
0.028463552 -0.20370974 0.65789086
0.034602735 -0.20370968 0.65789098
-0.058601636 -0.19589692 0.65789354
-0.051904298 -0.19589685 0.65789354
-0.044090733 -0.19589686 0.65789294
-0.036419675 -0.19577807 0.65789264
-0.031114653 -0.19380383 0.65789282
-0.02009197 -0.19254802 0.6578927
-0.011111463 -0.19295384 0.65789241
-0.0036835247 -0.19321762 0.65789223
0.0045682304 -0.19444951 0.65789211
0.0117203 -0.19589646 0.65789205
0.02009193 -0.19589643 0.65789169
0.028463561 -0.19589633 0.65789163
0.035025563 -0.19572715 0.65789127
-0.058466367 -0.18825251 0.65789396
-0.051904317 -0.18808335 0.65789384
-0.044090752 -0.18808338 0.65789366
-0.036277194 -0.18808328 0.65789318
-0.028463636 -0.18808325 0.6578927
-0.020091975 -0.18808316 0.65789276
-0.011720312 -0.1880831 0.65789241
-0.0039067692 -0.18808316 0.65789229
0.0039067683 -0.18808296 0.65789217
0.011720301 -0.18808296 0.65789217
0.020091936 -0.18808295 0.65789187
0.028463576 -0.1880828 0.65789187
0.035947308 -0.18780375 0.65789175
0.043302707 -0.18571903 0.65789133
0.04855549 -0.18473411 0.65789133
0.086041689 -0.18575704 0.65789038
0.092387319 -0.18753797 0.65789026
0.098537073 -0.18616003 0.65789026
-0.064740941 -0.17692134 0.65789425
-0.058880739 -0.17974284 0.65789413
-0.051904339 -0.18026993 0.65789407
-0.044090774 -0.18026987 0.6578939
-0.036277208 -0.18026979 0.65789366
-0.028463649 -0.18026979 0.65789354
-0.020091981 -0.1802697 0.657893
-0.011720316 -0.18026964 0.65789264
-0.0039067715 -0.18026961 0.65789258
0.0039067701 -0.18026955 0.65789235
0.011720306 -0.18026949 0.65789229
0.020091953 -0.18026945 0.65789193
0.028463585 -0.18026938 0.65789211
0.036277108 -0.18026932 0.65789211
0.044090632 -0.1802693 0.65789181
0.05161861 -0.17985393 0.65789163
0.059186134 -0.17814311 0.65789127
0.067159109 -0.17692053 0.65789115
0.077276587 -0.17872357 0.65789074
0.084344149 -0.18019925 0.65789044
0.092087872 -0.18026897 0.65789038
0.099901356 -0.18026899 0.65789032
0.10497505 -0.17986301 0.65789026
-0.11454443 -0.17035569 0.65789568
-0.10976215 -0.1694802 0.65789557
-0.073856808 -0.16985206 0.65789467
-0.067455411 -0.17182229 0.65789425
-0.059717942 -0.17245643 0.65789419
-0.051904351 -0.17245637 0.65789413
-0.044090793 -0.17245638 0.65789407
-0.036277223 -0.17245631 0.65789396
-0.028463656 -0.17245629 0.65789384
-0.020091986 -0.17245619 0.65789366
-0.011720323 -0.17245622 0.65789306
-0.003906772 -0.1724561 0.65789264
0.003906772 -0.17245604 0.65789253
0.011720311 -0.17245603 0.65789241
0.020091962 -0.17245601 0.65789253
0.028463602 -0.17245591 0.65789229
0.03627713 -0.17245589 0.65789217
0.044090655 -0.17245583 0.65789211
0.051904168 -0.17245574 0.65789187
0.059717689 -0.17245574 0.65789181
0.068079166 -0.17239478 0.65789121
0.076460928 -0.17245568 0.6578908
0.084274419 -0.17245561 0.65789074
0.092087902 -0.17245553 0.6578905
0.099486075 -0.17274104 0.65789038
0.10436624 -0.17580408 0.65789032
-0.12250584 -0.16192257 0.6578961
-0.11602549 -0.16402318 0.65789557
-0.10771573 -0.16408518 0.65789568
-0.10020164 -0.1629553 0.65789586
-0.092911057 -0.16135326 0.65789539
-0.083292685 -0.16200882 0.65789515
-0.076292895 -0.16388492 0.65789455
-0.068089657 -0.16408484 0.65789437
-0.059717964 -0.16408487 0.65789425
-0.051904377 -0.16408482 0.65789419
-0.044090811 -0.16408481 0.65789419
-0.036277235 -0.16408476 0.65789407
-0.028463673 -0.16408475 0.65789402
-0.020091997 -0.16408464 0.65789396
-0.011720328 -0.16408463 0.65789378
-0.0039067748 -0.16408457 0.65789372
0.0039067739 -0.16408454 0.657893
0.011720314 -0.16408451 0.65789282
0.020091968 -0.16408432 0.65789288
0.028463615 -0.16408436 0.65789258
0.036277141 -0.1640843 0.65789205
0.044090662 -0.16408429 0.65789193
0.051904183 -0.16408427 0.65789187
0.059717704 -0.16408415 0.65789175
0.068089321 -0.16408415 0.65789151
0.076460943 -0.16408406 0.65789145
0.084274448 -0.164084 0.65789092
0.092087962 -0.16408396 0.65789074
0.097936913 -0.16490993 0.6578908
-0.12256167 -0.15682982 0.65789616
-0.11608755 -0.15571354 0.65789634
-0.10771579 -0.15571353 0.65789598
-0.09990219 -0.1557135 0.65789592
-0.092088595 -0.15571341 0.65789574
-0.084275 -0.15571341 0.65789562
-0.076461405 -0.15571329 0.65789545
-0.068089686 -0.1557133 0.65789473
-0.05971799 -0.15571325 0.65789461
-0.051904406 -0.15571317 0.65789443
-0.04409083 -0.15571319 0.65789431
-0.036277253 -0.15571314 0.65789419
-0.028463682 -0.1557131 0.65789413
-0.020092009 -0.15571308 0.65789407
-0.011720334 -0.15571298 0.6578939
-0.0039067767 -0.15571301 0.65789372
0.0039067753 -0.1557129 0.65789366
0.011720323 -0.15571289 0.65789336
0.020091977 -0.15571283 0.65789288
0.028463624 -0.15571281 0.65789258
0.036277156 -0.15571269 0.65789241
0.044090688 -0.15571269 0.65789229
0.05190422 -0.15571265 0.65789217
0.059717745 -0.15571262 0.65789217
0.068089359 -0.15571259 0.65789181
0.076460987 -0.15571253 0.65789187
0.084274486 -0.15571246 0.65789181
0.091945499 -0.15578367 0.65789151
0.096552834 -0.15850294 0.65789115
-0.11513083 -0.14837845 0.65789616
-0.10771585 -0.1479 0.6578961
-0.09990222 -0.1479 0.6578961
-0.092088632 -0.14789993 0.65789598
-0.084275022 -0.14789991 0.65789586
-0.076461434 -0.14789984 0.65789568
-0.068089716 -0.14789979 0.65789539
-0.059718009 -0.14789975 0.65789497
-0.051904429 -0.14789973 0.65789461
-0.044090848 -0.14789967 0.65789455
-0.036277268 -0.14789958 0.65789431
-0.028463695 -0.14789961 0.65789431
-0.020092016 -0.14789955 0.65789413
-0.011720339 -0.14789946 0.65789413
-0.003906779 -0.14789951 0.65789396
0.0039067771 -0.14789943 0.65789372
0.011720328 -0.14789933 0.65789372
0.020091977 -0.14789937 0.65789354
0.028463636 -0.14789928 0.65789294
0.036277179 -0.14789926 0.65789258
0.044090711 -0.1478992 0.65789253
0.051904239 -0.14789915 0.65789235
0.059717756 -0.14789912 0.65789229
0.068089388 -0.14789911 0.65789193
0.07646101 -0.14789906 0.65789211
0.084274516 -0.147899 0.65789193
0.092088029 -0.14789899 0.65789181
0.098003969 -0.14678271 0.65789139
-0.11296217 -0.14187244 0.65789652
-0.10764614 -0.14015625 0.65789622
-0.09990228 -0.14008649 0.65789616
-0.092088647 -0.14008638 0.6578961
-0.084275067 -0.14008629 0.65789598
-0.076461457 -0.14008629 0.65789592
-0.068089746 -0.14008622 0.65789562
-0.059718031 -0.14008622 0.65789562
-0.051904455 -0.14008619 0.65789539
-0.044090863 -0.14008616 0.65789497
-0.036277283 -0.14008614 0.65789455
-0.028463706 -0.1400861 0.65789437
-0.020092022 -0.14008604 0.65789425
-0.011720343 -0.14008601 0.65789419
-0.0039067799 -0.140086 0.65789413
0.0039067781 -0.14008594 0.65789407
0.011720331 -0.14008591 0.6578939
0.02009199 -0.14008582 0.65789378
0.028463647 -0.14008579 0.65789366
0.03627719 -0.14008571 0.65789312
0.044090722 -0.14008574 0.6578927
0.051904261 -0.1400857 0.65789253
0.059717793 -0.14008565 0.65789241
0.068089418 -0.14008561 0.65789253
0.076461039 -0.14008559 0.65789229
0.084274575 -0.14008552 0.65789217
0.092088088 -0.14008547 0.65789211
0.09975908 -0.1399667 0.65789193
0.10506407 -0.13799253 0.65789163
-0.11218089 -0.12892431 0.657897
-0.10736079 -0.13206999 0.65789652
-0.099902302 -0.13227291 0.65789622
-0.092088699 -0.13227282 0.65789616
-0.084275112 -0.13227282 0.6578961
-0.076461487 -0.13227278 0.65789598
-0.068089768 -0.13227275 0.65789574
-0.059718058 -0.13227268 0.65789592
-0.051904466 -0.13227268 0.65789574
-0.044090878 -0.1322726 0.65789557
-0.036277298 -0.13227265 0.65789491
-0.028463716 -0.13227257 0.65789461
-0.020092029 -0.13227251 0.65789449
-0.011720347 -0.13227245 0.65789431
-0.0039067813 -0.13227245 0.65789419
0.0039067799 -0.13227244 0.65789413
0.011720339 -0.13227236 0.65789407
0.020091999 -0.13227238 0.65789396
0.02846366 -0.13227229 0.65789384
0.036277201 -0.13227226 0.65789366
0.044090744 -0.13227221 0.65789342
0.051904291 -0.1322722 0.65789282
0.059717804 -0.1322722 0.65789264
0.06808944 -0.13227209 0.65789264
0.076461077 -0.13227206 0.65789229
0.08427459 -0.13227201 0.65789229
0.092088118 -0.13227203 0.65789217
0.099901617 -0.13227202 0.65789211
0.10715701 -0.13179752 0.65789199
0.11217999 -0.12892328 0.65789175
-0.11316583 -0.12367149 0.65789711
-0.10771599 -0.12445937 0.65789723
-0.099902339 -0.12445939 0.65789664
-0.092088737 -0.12445932 0.6578964
-0.084275119 -0.1244593 0.65789622
-0.076461516 -0.12445924 0.6578961
-0.068089806 -0.1244592 0.65789634
-0.059718084 -0.12445919 0.65789598
-0.051904488 -0.12445914 0.65789592
-0.044090893 -0.12445913 0.65789574
-0.036277313 -0.12445914 0.65789562
-0.028463729 -0.12445907 0.65789539
-0.020092038 -0.12445899 0.65789455
-0.011720353 -0.12445895 0.65789455
-0.0039067832 -0.12445898 0.65789437
0.0039067813 -0.12445892 0.65789419
0.011720343 -0.12445886 0.65789419
0.020092012 -0.1244588 0.65789413
0.028463667 -0.12445883 0.65789407
0.03627722 -0.12445874 0.6578939
0.044090763 -0.12445872 0.65789372
0.051904298 -0.12445873 0.6578936
0.059717827 -0.12445872 0.65789306
0.068089478 -0.12445861 0.65789288
0.076461114 -0.12445857 0.65789253
0.08427462 -0.12445853 0.65789235
0.092088148 -0.12445851 0.65789235
0.099901646 -0.12445847 0.65789217
0.10771515 -0.12445851 0.65789211
0.11587594 -0.12376383 0.65789205
0.12445839 -0.12390026 0.65789187
0.13234974 -0.12399106 0.65789169
0.14008537 -0.12445832 0.65789104
0.14510833 -0.12362113 0.65789121
-0.11511105 -0.11557621 0.65789783
-0.10771604 -0.11608771 0.65789765
-0.099902414 -0.11608768 0.65789753
-0.092088766 -0.11608767 0.65789711
-0.084275171 -0.11608765 0.65789664
-0.076461554 -0.1160876 0.65789652
-0.06808982 -0.11608756 0.65789658
-0.05971811 -0.11608759 0.65789634
-0.051904522 -0.11608753 0.65789604
-0.044090919 -0.11608746 0.65789568
-0.036277331 -0.11608744 0.65789562
-0.028463738 -0.11608742 0.65789551
-0.02009205 -0.11608735 0.65789527
-0.011720358 -0.11608733 0.65789479
-0.003906785 -0.11608734 0.65789449
0.0039067836 -0.11608731 0.65789443
0.011720347 -0.11608721 0.65789425
0.020092016 -0.11608724 0.65789419
0.028463686 -0.11608719 0.65789413
0.036277235 -0.1160871 0.65789407
0.044090785 -0.11608715 0.65789402
0.051904324 -0.11608712 0.65789384
0.05971786 -0.11608704 0.65789372
0.0680895 -0.11608699 0.65789348
0.076461144 -0.11608703 0.65789288
0.084274665 -0.11608692 0.65789282
0.0920882 -0.11608692 0.6578927
0.099901699 -0.11608686 0.65789258
0.10771523 -0.11608684 0.65789229
0.11608684 -0.11608679 0.65789187
0.12445842 -0.11608678 0.65789187
0.13227193 -0.1160868 0.65789181
0.14008541 -0.11608671 0.65789163
0.14645441 -0.11562711 0.65789163
-0.12173103 -0.10597979 0.65789801
-0.11608781 -0.10771611 0.65789789
-0.10771608 -0.10771609 0.65789789
-0.099902451 -0.10771606 0.65789765
-0.092088826 -0.10771602 0.65789747
-0.084275194 -0.10771601 0.65789723
-0.076461598 -0.10771595 0.65789664
-0.06808985 -0.10771596 0.65789658
-0.059718132 -0.10771587 0.65789622
-0.051904541 -0.10771585 0.6578961
-0.044090934 -0.10771585 0.6578961
-0.036277346 -0.10771581 0.65789598
-0.028463753 -0.10771574 0.65789592
-0.020092057 -0.1077157 0.65789562
-0.011720364 -0.1077157 0.65789562
-0.003906786 -0.10771568 0.65789539
0.003906785 -0.10771566 0.65789491
0.011720353 -0.10771564 0.65789461
0.020092029 -0.10771559 0.65789443
0.028463697 -0.10771558 0.65789419
0.036277249 -0.10771553 0.65789419
0.0440908 -0.10771551 0.65789413
0.051904339 -0.10771547 0.65789407
0.059717879 -0.10771548 0.6578939
0.068089537 -0.10771542 0.65789378
0.076461174 -0.10771538 0.6578936
0.084274694 -0.10771535 0.65789306
0.092088223 -0.10771535 0.6578927
0.099901751 -0.10771525 0.65789258
0.10771526 -0.10771526 0.65789235
0.11608689 -0.10771521 0.65789253
0.12445848 -0.1077152 0.65789217
0.13227198 -0.10771516 0.65789217
0.13967712 -0.10823241 0.65789211
0.14580606 -0.11036612 0.65789163
-0.15292366 -0.098228335 0.65789896
-0.1479006 -0.098786466 0.65789878
-0.13994743 -0.099205002 0.65789849
-0.13212442 -0.099604949 0.65789831
-0.12445967 -0.099902578 0.65789813
-0.11608787 -0.099902555 0.65789801
-0.10771612 -0.099902503 0.65789795
-0.099902496 -0.099902526 0.65789789
-0.092088848 -0.099902466 0.65789777
-0.084275238 -0.099902429 0.65789765
-0.076461621 -0.099902406 0.65789747
-0.06808988 -0.099902369 0.65789694
-0.059718162 -0.099902339 0.65789646
-0.051904552 -0.099902272 0.65789634
-0.044090956 -0.099902257 0.65789616
-0.036277361 -0.099902257 0.6578961
-0.028463768 -0.099902228 0.6578961
-0.020092066 -0.099902168 0.65789568
-0.011720368 -0.099902213 0.65789592
-0.0039067869 -0.099902146 0.65789574
0.0039067869 -0.099902101 0.65789562
0.011720358 -0.099902086 0.65789497
0.020092038 -0.099902056 0.65789449
0.028463706 -0.099902034 0.65789443
0.036277264 -0.099902019 0.65789431
0.044090822 -0.099902019 0.65789419
0.051904358 -0.099901952 0.65789413
0.059717912 -0.099901952 0.65789407
0.06808956 -0.099901922 0.65789402
0.076461211 -0.099901877 0.65789372
0.084274739 -0.099901803 0.65789372
0.09208826 -0.09990178 0.65789342
0.099901773 -0.099901751 0.65789288
0.10771528 -0.099901766 0.65789264
0.11608692 -0.099901713 0.65789264
0.12445854 -0.099901713 0.65789235
0.13156511 -0.10116672 0.65789223
0.13729498 -0.10325029 0.65789211
-0.15336433 -0.091795348 0.65789908
-0.14790063 -0.092089072 0.65789938
-0.14008701 -0.09208905 0.65789866
-0.1322733 -0.09208905 0.65789843
-0.12445971 -0.092089042 0.65789837
-0.11608791 -0.09208896 0.65789807
-0.10771615 -0.09208896 0.65789801
-0.099902555 -0.092088901 0.65789795
-0.092088893 -0.092088886 0.65789789
-0.084275283 -0.092088863 0.65789777
-0.076461658 -0.092088848 0.65789777
-0.06808991 -0.092088856 0.65789753
-0.059718199 -0.092088789 0.65789723
-0.05190457 -0.092088774 0.65789652
-0.044090971 -0.092088722 0.6578964
-0.036277369 -0.092088722 0.65789622
-0.028463777 -0.092088707 0.65789616
-0.020092072 -0.092088699 0.65789604
-0.011720371 -0.09208864 0.65789598
-0.0039067902 -0.09208861 0.65789592
0.0039067883 -0.09208858 0.65789568
0.01172036 -0.092088573 0.65789568
0.020092044 -0.092088558 0.65789503
0.028463723 -0.092088506 0.65789473
0.036277279 -0.092088446 0.65789455
0.044090837 -0.092088453 0.65789437
0.05190438 -0.092088386 0.65789431
0.059717931 -0.092088416 0.65789413
0.068089597 -0.092088379 0.65789407
0.076461226 -0.092088357 0.65789407
0.084274776 -0.092088327 0.6578939
0.092088319 -0.092088342 0.65789372
0.09990181 -0.092088275 0.65789366
0.10771535 -0.092088245 0.6578933
0.11608697 -0.09208823 0.65789282
0.12352339 -0.092088193 0.65789264
-0.15377565 -0.085215494 0.65789944
-0.14784461 -0.084259354 0.65795434
-0.14008707 -0.084275499 0.65789944
-0.13227336 -0.084275447 0.65789914
-0.12445974 -0.084275439 0.65789849
-0.116088 -0.084275439 0.65789831
-0.10771621 -0.084275402 0.65789825
-0.099902593 -0.084275343 0.65789801
-0.092088953 -0.084275343 0.65789795
-0.084275313 -0.084275305 0.65789795
-0.07646168 -0.084275275 0.65789789
-0.068089947 -0.084275268 0.65789783
-0.059718214 -0.084275208 0.65789753
-0.0519046 -0.084275208 0.65789741
-0.04409099 -0.084275179 0.65789694
-0.036277387 -0.084275149 0.65789646
-0.028463786 -0.084275156 0.65789634
-0.020092081 -0.084275089 0.6578964
-0.011720376 -0.084275097 0.6578961
-0.0039067916 -0.084275082 0.6578961
0.0039067897 -0.084275082 0.65789592
0.011720368 -0.084275022 0.65789586
0.020092051 -0.08427497 0.65789551
0.028463734 -0.084274992 0.65789545
0.036277298 -0.084274925 0.65789485
0.044090856 -0.084274925 0.65789455
0.051904406 -0.084274918 0.65789443
0.059717968 -0.084274888 0.65789431
0.068089619 -0.084274873 0.65789419
0.076461263 -0.084274836 0.65789413
0.084274799 -0.084274821 0.65789407
0.092088327 -0.084274776 0.6578939
0.09990187 -0.084274746 0.65789372
0.10771541 -0.084274732 0.65789366
0.11608702 -0.084274709 0.65789348
0.12390055 -0.084274665 0.65789276
-0.14569612 -0.079499744 0.6590336
-0.13948604 -0.078136221 0.65789932
-0.1321547 -0.076604344 0.6578995
-0.12445978 -0.076461852 0.65789938
-0.11608803 -0.076461829 0.65789878
-0.10771625 -0.076461777 0.65789843
-0.099902608 -0.076461762 0.65789825
-0.092088982 -0.076461732 0.65789819
-0.08427535 -0.076461732 0.65789801
-0.076461703 -0.076461703 0.65789795
-0.068089969 -0.076461688 0.65789789
-0.05971824 -0.076461665 0.65789777
-0.051904626 -0.076461665 0.65789753
-0.044091012 -0.076461621 0.65789747
-0.036277402 -0.076461606 0.65789711
-0.028463801 -0.076461591 0.65789646
-0.020092087 -0.076461554 0.65789658
-0.011720382 -0.076461524 0.65789622
-0.0039067925 -0.076461516 0.65789616
0.0039067911 -0.076461464 0.65789598
0.011720371 -0.076461464 0.65789598
0.020092059 -0.076461449 0.65789568
0.028463744 -0.076461412 0.65789568
0.036277313 -0.07646139 0.65789562
0.044090874 -0.076461382 0.65789515
0.051904436 -0.076461375 0.65789467
0.059717987 -0.076461375 0.65789455
0.068089642 -0.076461308 0.65789443
0.076461293 -0.076461308 0.65789419
0.084274843 -0.076461285 0.65789413
0.092088379 -0.076461256 0.65789413
0.0999019 -0.076461218 0.65789407
0.10771542 -0.076461218 0.6578939
0.11608707 -0.076461196 0.65789378
0.12431622 -0.076342434 0.65789354
-0.12934336 -0.069904014 0.65789938
-0.12445979 -0.068090126 0.65789938
-0.1160881 -0.068090111 0.65789908
-0.10771628 -0.068090096 0.65789902
-0.099902652 -0.068090081 0.65789837
-0.092089035 -0.068090066 0.65789831
-0.084275365 -0.068090037 0.65789813
-0.076461732 -0.068090014 0.65789807
-0.068090014 -0.068090022 0.65789801
-0.059718259 -0.068090007 0.65789795
-0.051904637 -0.068089969 0.65789789
-0.044091035 -0.068089955 0.65789765
-0.036277417 -0.06808991 0.65789759
-0.028463814 -0.068089902 0.65789747
-0.020092094 -0.068089887 0.65789717
-0.011720386 -0.06808985 0.65789664
-0.0039067948 -0.068089835 0.65789658
0.003906793 -0.068089828 0.6578964
0.011720377 -0.068089806 0.65789622
0.020092066 -0.068089761 0.65789568
0.028463755 -0.068089776 0.65789574
0.036277328 -0.068089761 0.65789562
0.044090889 -0.068089716 0.65789551
0.051904459 -0.068089709 0.65789539
0.059718005 -0.068089686 0.65789491
0.068089671 -0.068089671 0.65789443
0.07646133 -0.068089671 0.65789449
0.084274873 -0.068089627 0.65789419
0.092088409 -0.068089604 0.65789419
0.099901937 -0.068089589 0.65789413
0.10771549 -0.068089582 0.65789407
0.11608712 -0.068089545 0.65789407
0.12445877 -0.06808956 0.65789384
0.12892364 -0.064740881 0.6578936
-0.12445988 -0.059718449 0.6578998
-0.11608814 -0.059718411 0.6578995
-0.10771637 -0.059718385 0.6578995
-0.099902689 -0.059718367 0.65789938
-0.092089057 -0.05971837 0.6578989
-0.084275402 -0.059718326 0.65789843
-0.076461785 -0.059718296 0.65789837
-0.068090037 -0.059718288 0.65789807
-0.059718281 -0.059718277 0.65789801
-0.051904667 -0.059718255 0.65789795
-0.04409105 -0.059718248 0.65789789
-0.036277432 -0.059718233 0.65789777
-0.028463824 -0.059718221 0.65789765
-0.020092105 -0.059718225 0.65789753
-0.011720392 -0.05971818 0.65789717
-0.0039067958 -0.05971818 0.65789646
0.0039067948 -0.059718147 0.6578964
0.011720382 -0.059718132 0.65789622
0.020092076 -0.059718128 0.65789634
0.028463768 -0.059718087 0.65789598
0.036277339 -0.059718084 0.65789598
0.044090904 -0.059718065 0.65789592
0.05190447 -0.059718035 0.65789574
0.059718039 -0.059718024 0.65789562
0.068089701 -0.059718035 0.65789509
0.076461367 -0.05971799 0.65789467
0.084274903 -0.059717994 0.65789461
0.092088446 -0.059717987 0.65789437
0.099902004 -0.059717946 0.65789419
0.10771551 -0.059717931 0.65789413
0.11608718 -0.05971792 0.65789413
0.12445882 -0.059717905 0.65789407
0.13137937 -0.058199834 0.6578939
0.13729532 -0.056369215 0.65789366
-0.12407941 -0.05203167 0.65789986
-0.11608816 -0.051904798 0.65789956
-0.10771641 -0.051904805 0.65789968
-0.099902734 -0.051904775 0.65789956
-0.092089087 -0.051904757 0.65789944
-0.084275432 -0.051904742 0.65789902
-0.076461814 -0.051904745 0.65789855
-0.068090066 -0.051904712 0.65789831
-0.059718307 -0.051904693 0.65789825
-0.05190469 -0.051904663 0.65789801
-0.044091068 -0.051904675 0.65789795
-0.036277447 -0.051904641 0.65789789
-0.028463835 -0.051904626 0.65789777
-0.020092113 -0.051904619 0.65789765
-0.011720395 -0.051904596 0.65789747
-0.0039067976 -0.051904589 0.65789741
0.0039067962 -0.051904585 0.6578967
0.011720386 -0.051904563 0.65789652
0.020092083 -0.051904541 0.65789652
0.028463777 -0.051904541 0.65789616
0.03627735 -0.051904514 0.6578961
0.044090927 -0.051904522 0.65789598
0.051904492 -0.051904503 0.65789598
0.059718054 -0.051904492 0.65789574
0.068089731 -0.05190447 0.65789551
0.076461405 -0.051904436 0.65789545
0.084274948 -0.051904436 0.65789491
0.092088483 -0.051904403 0.65789455
0.099902034 -0.051904395 0.65789455
0.10771558 -0.051904395 0.65789419
0.11608721 -0.051904362 0.65789419
0.12445884 -0.051904343 0.65789413
0.13227239 -0.051904343 0.65789413
0.13994031 -0.051685944 0.65789396
0.1472984 -0.05023 0.65789372
0.15320146 -0.048834708 0.65789354
-0.12376235 -0.044230741 0.65789998
-0.11608817 -0.044091187 0.65790015
-0.10771643 -0.04409118 0.6578998
-0.099902757 -0.044091176 0.6578998
-0.092089139 -0.044091161 0.65789974
-0.084275477 -0.044091135 0.6578995
-0.076461844 -0.044091135 0.65789938
-0.068090089 -0.044091124 0.6578986
-0.059718326 -0.044091109 0.65789843
-0.051904704 -0.044091098 0.65789837
-0.044091083 -0.044091083 0.65789813
-0.036277462 -0.044091087 0.65789795
-0.028463848 -0.044091053 0.65789795
-0.020092124 -0.04409105 0.65789789
-0.0117204 -0.044091035 0.65789771
-0.003906799 -0.04409102 0.65789765
0.0039067976 -0.044091016 0.65789747
0.011720392 -0.044091001 0.65789711
0.020092089 -0.044090997 0.6578967
0.02846379 -0.044090975 0.6578964
0.036277376 -0.04409096 0.65789616
0.044090938 -0.044090938 0.65789616
0.051904518 -0.044090934 0.6578961
0.05971808 -0.044090908 0.65789598
0.068089761 -0.044090915 0.65789568
0.076461434 -0.044090897 0.65789568
0.084274985 -0.044090893 0.65789562
0.092088543 -0.044090874 0.65789521
0.099902079 -0.044090845 0.65789467
0.10771561 -0.044090841 0.65789461
0.11608726 -0.044090841 0.65789425
0.12445889 -0.044090837 0.65789419
0.13227242 -0.044090811 0.65789419
0.14008594 -0.0440908 0.65789413
0.14789949 -0.044090796 0.65789407
0.1537596 -0.044369835 0.65789384
-0.12966917 -0.033673055 0.65790063
-0.12398167 -0.035958659 0.65790027
-0.11608823 -0.036277574 0.65790027
-0.10771649 -0.036277577 0.65789998
-0.099902816 -0.036277559 0.6578998
-0.092089176 -0.036277544 0.6578998
-0.084275521 -0.036277536 0.65789974
-0.076461874 -0.036277529 0.65789956
-0.068090111 -0.036277525 0.65789926
-0.059718359 -0.036277507 0.65789914
-0.051904727 -0.036277495 0.65789843
-0.044091098 -0.036277488 0.65789837
-0.03627748 -0.03627748 0.65789813
-0.028463863 -0.036277469 0.65789801
-0.02009213 -0.036277466 0.65789795
-0.011720407 -0.036277432 0.65789789
-0.0039068004 -0.036277443 0.65789777
0.003906799 -0.036277439 0.65789777
0.011720394 -0.036277425 0.65789753
0.020092102 -0.036277413 0.65789753
0.028463803 -0.036277406 0.6578967
0.036277384 -0.036277384 0.6578964
0.044090968 -0.036277387 0.65789622
0.051904533 -0.036277361 0.65789616
0.059718102 -0.036277354 0.6578961
0.068089791 -0.03627735 0.65789586
0.076461449 -0.036277331 0.65789592
0.084275015 -0.036277335 0.65789574
0.092088565 -0.03627732 0.65789568
0.099902116 -0.036277298 0.65789545
0.10771566 -0.036277294 0.65789467
0.11608731 -0.036277294 0.65789455
0.12445894 -0.036277264 0.65789443
0.13227248 -0.036277261 0.65789431
0.14008602 -0.036277264 0.65789419
0.14789954 -0.036277249 0.65789413
0.1531318 -0.036626052 0.65789407
-0.13859914 -0.026305936 0.65790111
-0.1320796 -0.028269842 0.65790099
-0.12446013 -0.028463973 0.65790051
-0.11608828 -0.02846395 0.65790045
-0.10771652 -0.02846396 0.65790004
-0.099902861 -0.028463954 0.65789998
-0.092089206 -0.028463945 0.65789992
-0.084275559 -0.028463928 0.6578998
-0.076461911 -0.028463926 0.65789974
-0.068090133 -0.028463921 0.65789944
-0.059718385 -0.028463909 0.6578995
-0.051904757 -0.028463895 0.65789938
-0.044091117 -0.028463881 0.65789855
-0.036277495 -0.028463874 0.65789843
-0.02846387 -0.028463874 0.65789819
-0.020092141 -0.028463859 0.65789807
-0.01172041 -0.028463859 0.65789801
-0.0039068027 -0.028463846 0.65789795
0.0039068009 -0.028463835 0.65789789
0.0117204 -0.028463826 0.65789771
0.020092109 -0.02846382 0.65789765
0.028463816 -0.028463816 0.65789747
0.036277398 -0.028463801 0.65789694
0.044090983 -0.028463796 0.65789646
0.051904555 -0.028463786 0.65789634
0.059718132 -0.028463783 0.65789616
0.06808982 -0.02846377 0.65789634
0.076461479 -0.028463766 0.6578961
0.084275045 -0.028463762 0.65789592
0.09208861 -0.028463747 0.65789586
0.099902153 -0.028463738 0.65789568
0.1077157 -0.028463727 0.65789562
0.11608734 -0.028463734 0.65789515
0.12394871 -0.029388588 0.65789473
0.13199942 -0.030418389 0.65792465
0.13980527 -0.030816361 0.65795487
0.14792551 -0.031259522 0.6580072
0.15292254 -0.031812355 0.65789413
-0.14659892 -0.019013209 0.6579017
-0.14008756 -0.020092232 0.65790164
-0.13227381 -0.020092223 0.65790141
-0.12446018 -0.020092221 0.65790135
-0.11608836 -0.020092221 0.65790117
-0.10771657 -0.020092206 0.65790051
-0.09990292 -0.020092204 0.65790039
-0.092089228 -0.020092204 0.65790033
-0.084275596 -0.020092195 0.65790021
-0.076461934 -0.020092193 0.65789998
-0.068090163 -0.020092174 0.65789938
-0.059718426 -0.020092176 0.6578995
-0.051904775 -0.020092165 0.65789932
-0.044091135 -0.020092161 0.65789926
-0.03627751 -0.02009216 0.65789878
-0.028463881 -0.020092156 0.65789837
-0.020092148 -0.020092145 0.65789825
-0.011720414 -0.020092135 0.65789813
-0.0039068032 -0.020092128 0.65789801
0.0039068023 -0.02009213 0.65789795
0.011720405 -0.020092124 0.65789795
0.020092117 -0.020092115 0.65789789
0.028463824 -0.020092115 0.65789777
0.036277417 -0.020092104 0.65789759
0.044090994 -0.020092096 0.65789741
0.051904581 -0.020092091 0.65789688
0.059718158 -0.020092087 0.65789658
0.068089835 -0.020092079 0.65789676
0.076461509 -0.020092081 0.6578964
0.084275082 -0.02009207 0.65789616
0.09208864 -0.020092072 0.65789604
0.099902198 -0.020092059 0.65789568
0.10771573 -0.020092055 0.65789557
0.11577523 -0.02030962 0.65789545
0.12111038 -0.023440719 0.65789521
-0.14577508 -0.012252017 0.65790176
-0.14008759 -0.011720476 0.65790176
-0.13227388 -0.011720471 0.6579017
-0.12446021 -0.011720467 0.65790153
-0.11608843 -0.011720465 0.65790141
-0.1077166 -0.011720463 0.65790123
-0.099902958 -0.01172046 0.65790051
-0.092089273 -0.011720453 0.65790027
-0.084275618 -0.01172045 0.65790015
-0.076461963 -0.011720448 0.65789998
-0.0680902 -0.011720441 0.65790015
-0.059718437 -0.011720438 0.6578998
-0.051904794 -0.011720438 0.6578998
-0.044091158 -0.011720435 0.65789968
-0.036277529 -0.011720425 0.65789944
-0.028463895 -0.011720426 0.65789938
-0.02009216 -0.011720425 0.6578986
-0.011720425 -0.011720423 0.65789843
-0.0039068046 -0.011720416 0.65789825
0.0039068037 -0.011720416 0.65789813
0.01172041 -0.011720408 0.65789801
0.020092128 -0.011720406 0.65789795
0.028463839 -0.011720403 0.65789789
0.036277432 -0.011720402 0.65789771
0.044091024 -0.011720397 0.65789765
0.0519046 -0.011720391 0.65789747
0.059718184 -0.011720388 0.65789694
0.068089865 -0.011720387 0.6578967
0.076461554 -0.011720386 0.6578964
0.084275119 -0.011720384 0.65789616
0.092088677 -0.011720378 0.65789616
0.099902242 -0.011720374 0.65789598
0.10771579 -0.011720372 0.65789598
0.11415268 -0.012241272 0.65789586
-0.14483164 -0.0064183576 0.65790194
-0.139962 -0.00552426 0.65803927
-0.13227391 -0.006139297 0.6579017
-0.12431722 -0.0060910601 0.65822947
-0.11526455 -0.0060861381 0.65790135
-0.10764688 -0.0039765863 0.65790147
-0.09990301 -0.0039068218 0.65790129
-0.09208931 -0.00390682 0.65790093
-0.084275655 -0.0039068195 0.65790033
-0.076461993 -0.0039068167 0.65790027
-0.068090238 -0.0039068153 0.65790021
-0.059718467 -0.0039068153 0.65789998
-0.051904816 -0.0039068148 0.65789992
-0.044091176 -0.0039068144 0.6578998
-0.036277536 -0.003906813 0.65789974
-0.028463909 -0.003906813 0.65789956
-0.020092165 -0.0039068097 0.65789926
-0.011720427 -0.0039068083 0.65789896
-0.0039068065 -0.003906806 0.65789843
0.0039068051 -0.0039068046 0.65789837
0.011720416 -0.0039068037 0.65789819
0.020092135 -0.0039068041 0.65789807
0.02846385 -0.0039068018 0.65789795
0.036277443 -0.0039068018 0.65789789
0.044091038 -0.0039068018 0.65789789
0.051904615 -0.0039067981 0.65789765
0.059718214 -0.0039067976 0.65789747
0.068089895 -0.0039067972 0.65789747
0.076461591 -0.0039067958 0.65789652
0.084275149 -0.0039067948 0.65789646
0.092088707 -0.0039067939 0.65789622
0.09990228 -0.0039067925 0.65789616
0.10771582 -0.0039067906 0.6578961
0.11249963 -0.0055013997 0.65789598
-0.10619862 0.0029245364 0.65790147
-0.09990304 0.0039068232 0.65790135
-0.092089362 0.0039068228 0.65790129
-0.084275685 0.00390682 0.65790123
-0.076462038 0.0039068209 0.65790069
-0.068090267 0.0039068186 0.65790045
-0.059718493 0.0039068158 0.65790015
-0.051904827 0.0039068167 0.65789998
-0.044091191 0.0039068148 0.65789992
-0.036277551 0.0039068148 0.6578998
-0.028463921 0.0039068148 0.6578998
-0.020092174 0.0039068139 0.65789938
-0.01172043 0.003906813 0.65789944
-0.0039068102 0.0039068102 0.6578992
0.003906806 0.0039068051 0.65789849
0.011720422 0.0039068051 0.65789837
0.020092145 0.0039068023 0.65789831
0.028463863 0.0039068027 0.65789801
0.036277466 0.0039068023 0.65789795
0.044091053 0.0039068009 0.65789795
0.051904645 0.0039068023 0.65789789
0.059718233 0.0039068004 0.65789777
0.068089925 0.003906799 0.65789765
0.076461621 0.003906799 0.65789741
0.084275186 0.0039067976 0.65789711
0.092088774 0.0039067958 0.65789652
0.099902317 0.0039067958 0.6578964
0.1072746 0.0040625464 0.65789616
0.11218078 0.0072554736 0.6578964
-0.10436802 0.0083717657 0.65790153
-0.099244766 0.01126253 0.65790164
-0.092089392 0.01172047 0.65790153
-0.084275745 0.011720465 0.65790135
-0.076462068 0.011720462 0.65790129
-0.06809029 0.011720464 0.65790093
-0.059718512 0.011720458 0.65790027
-0.051904868 0.011720455 0.65790021
-0.044091225 0.01172045 0.65790004
-0.036277566 0.011720444 0.65789998
-0.02846393 0.011720443 0.65789992
-0.02009218 0.011720441 0.65789956
-0.011720436 0.011720431 0.65789974
-0.0039068125 0.011720435 0.65789944
0.0039068107 0.01172043 0.65789944
0.011720426 0.011720427 0.65789872
0.020092154 0.011720427 0.65789843
0.028463872 0.011720419 0.65789837
0.036277473 0.011720411 0.65789819
0.044091079 0.011720414 0.65789801
0.051904667 0.011720404 0.65789801
0.059718259 0.011720407 0.65789789
0.068089955 0.011720398 0.65789783
0.076461658 0.011720398 0.65789777
0.084275223 0.011720395 0.65789753
0.092088796 0.011720394 0.65789735
0.099902347 0.011720388 0.6578967
0.10771595 0.011720387 0.65789646
0.11378236 0.012642485 0.65789664
-0.097192235 0.017301653 0.6579017
-0.0919654 0.020009557 0.65790176
-0.084275767 0.020092236 0.6579017
-0.076462083 0.020092225 0.65790147
-0.068090312 0.020092223 0.65790147
-0.059718531 0.020092221 0.65790117
-0.051904887 0.020092217 0.65790075
-0.044091232 0.020092214 0.65790045
-0.036277581 0.020092206 0.65790039
-0.028463949 0.020092189 0.65790021
-0.020092189 0.020092197 0.65790004
-0.011720442 0.020092187 0.65789956
-0.0039068139 0.020092178 0.6578995
0.0039068135 0.020092173 0.65789944
0.011720429 0.020092165 0.65789926
0.020092161 0.020092169 0.65789884
0.028463889 0.020092148 0.65789843
0.036277492 0.02009215 0.65789837
0.044091098 0.020092145 0.65789825
0.05190469 0.020092135 0.65789807
0.059718281 0.020092135 0.65789801
0.068089984 0.020092126 0.65789795
0.076461688 0.02009213 0.65789789
0.084275246 0.020092119 0.65789777
0.092088826 0.020092109 0.65789759
0.099902414 0.020092109 0.65789753
0.10771599 0.0200921 0.657897
0.11584578 0.020296725 0.65789676
0.12180831 0.022743132 0.6578967
-0.097163297 0.029681737 0.65790212
-0.092089497 0.028464017 0.65790182
-0.084275797 0.028464017 0.65790176
-0.076462135 0.028463997 0.6579017
-0.068090342 0.028463988 0.65790164
-0.059718564 0.028463993 0.65790135
-0.051904913 0.028463982 0.65790129
-0.044091254 0.028463975 0.65790075
-0.036277607 0.028463967 0.65790045
-0.02846396 0.028463962 0.65790021
-0.0200922 0.028463958 0.65790021
-0.011720446 0.028463943 0.65789998
-0.0039068148 0.028463928 0.65789992
0.0039068148 0.028463926 0.6578998
0.011720436 0.028463919 0.65789974
0.020092171 0.028463909 0.65789938
0.028463898 0.028463896 0.65789944
0.03627751 0.028463891 0.65789914
0.044091117 0.028463878 0.65789843
0.051904716 0.02846388 0.65789843
0.059718307 0.028463872 0.65789825
0.068090029 0.028463861 0.65789807
0.076461717 0.028463855 0.65789795
0.083903231 0.028012041 0.65789795
0.092479542 0.027849913 0.65789783
0.099902451 0.028463824 0.65789771
0.10771602 0.028463814 0.65789747
0.11608768 0.028463816 0.65789735
0.12284704 0.028091729 0.65789688
-0.098753139 0.036751248 0.65790236
-0.092089549 0.0362777 0.657902
-0.084275842 0.036277689 0.65790182
-0.076462165 0.036277667 0.65790182
-0.068090372 0.036277652 0.6579017
-0.059718583 0.036277648 0.65790159
-0.051904928 0.036277648 0.65790153
-0.044091269 0.036277626 0.65790135
-0.036277618 0.036277618 0.65790123
-0.028463967 0.036277615 0.65790051
-0.020092208 0.0362776 0.65790045
-0.011720451 0.036277577 0.65789998
-0.0039068153 0.036277577 0.65789998
0.0039068148 0.03627757 0.65789992
0.011720441 0.036277555 0.6578998
0.020092174 0.03627754 0.6578995
0.028463913 0.036277525 0.6578995
0.036277525 0.036277521 0.6578995
0.044091128 0.036277518 0.6578992
0.051904742 0.036277503 0.65789878
0.059718322 0.036277492 0.65789837
0.068090044 0.036277495 0.65789831
0.075754791 0.035012417 0.65789807
0.08148475 0.032928772 0.65789807
0.10120475 0.033672903 0.65789753
0.10808896 0.035165284 0.65797186
0.11548109 0.035792105 0.65789759
0.12111074 0.033486839 0.65789711
-0.1047403 0.046137825 0.65790278
-0.099833466 0.04416113 0.65790254
-0.092089579 0.044091366 0.65790224
-0.084275879 0.04409134 0.65790206
-0.076580949 0.043948844 0.65790194
-0.067991905 0.042613953 0.65790182
-0.059573013 0.043872915 0.6579017
-0.05190495 0.044091314 0.6579017
-0.044091288 0.044091292 0.65790159
-0.036277633 0.044091273 0.65790135
-0.028463976 0.044091258 0.65790129
-0.020092215 0.044091258 0.65790093
-0.011720455 0.044091251 0.65790033
-0.0039068176 0.044091225 0.65790021
0.0039068158 0.044091213 0.65789998
0.011720443 0.044091195 0.65789992
0.020092186 0.044091191 0.65789986
0.028463926 0.044091173 0.65789974
0.036277536 0.044091161 0.65789974
0.04409115 0.044091143 0.65789956
0.05190476 0.044091128 0.65789944
0.059648599 0.044021353 0.65789902
0.066575184 0.042177577 0.65789878
0.11552966 0.040742345 0.65789753
-0.1051124 0.049486548 0.65790296
-0.099539846 0.051541638 0.65790319
-0.092089616 0.051905058 0.65790272
-0.084849104 0.05115081 0.65790236
-0.078694701 0.049194153 0.6579023
-0.056928031 0.048556264 0.65790182
-0.051225517 0.05001222 0.65790176
-0.043805756 0.051489606 0.6579017
-0.036277648 0.051904947 0.6579017
-0.028463993 0.05190492 0.65790153
-0.020092228 0.051904891 0.65790141
-0.01172046 0.051904902 0.65790081
-0.0039068195 0.051904868 0.65790033
0.0039068176 0.051904857 0.65790027
0.011720451 0.051904842 0.65790004
0.020092195 0.051904839 0.65790015
0.028463934 0.051904824 0.65789992
0.036277555 0.051904805 0.6578998
0.044091165 0.051904786 0.65789974
0.051904779 0.051904786 0.65789974
0.05814027 0.052020233 0.6578992
-0.096926667 0.056742098 0.65790302
-0.092794612 0.057545003 0.65790284
-0.040742606 0.056369904 0.6579017
-0.035455171 0.059483618 0.65790176
-0.028463999 0.059718609 0.6579017
-0.02009223 0.059718587 0.65790164
-0.011720464 0.059718575 0.65790135
-0.0039765858 0.059648786 0.65790129
0.0039068186 0.059160419 0.65790051
0.011544206 0.05886665 0.65790039
0.019992027 0.058545001 0.65790009
0.028974216 0.058793601 0.65790004
0.03627757 0.059718471 0.65789992
0.044091187 0.059718471 0.6578998
0.051904805 0.059718434 0.6578998
0.058602184 0.059718411 0.65789968
-0.034767475 0.067893431 0.65790182
-0.028464016 0.068090402 0.65790176
-0.02009224 0.068090372 0.6579017
-0.011844497 0.067966312 0.65790164
-0.0068834485 0.065485783 0.65790129
0.031812649 0.064183414 0.65790027
0.037067112 0.067341559 0.65790004
0.044091206 0.068090215 0.65790021
0.05190482 0.068090186 0.65789986
0.05876166 0.068249643 0.6578998
-0.034324277 0.076183148 0.65790218
-0.028464032 0.076462194 0.65790182
-0.020092247 0.076462165 0.65790182
-0.013394829 0.075861104 0.6579017
0.039254215 0.073485374 0.65790039
0.044454653 0.076098561 0.65790021
0.051904839 0.076461963 0.65790004
0.058954727 0.076138832 0.65789998
-0.033921201 0.083779782 0.65790254
-0.02846404 0.084275857 0.65790206
-0.020163292 0.084214941 0.65790188
-0.014845942 0.082266614 0.657902
0.046199676 0.081795126 0.65790051
0.050960358 0.081613846 0.65790039
-0.02623157 0.088740848 0.65790248
-0.020315511 0.089075699 0.6579023
-0.1453304 -0.078602821 0.66658944
-0.14372244 -0.077825986 0.66963655
0.13363248 -0.028756358 0.66465884
0.13994306 -0.029463356 0.66795886
0.14635023 -0.030181177 0.67126715
-0.13612202 -0.0039537516 0.66580403
-0.13580371 -0.0039775148 0.66980571
-0.12039717 -0.0051112729 0.66945541
0.09039031 0.030130103 0.67013121
0.097638711 0.033298753 0.66529006
0.10864942 0.038112622 0.67054683
-0.091940716 0.059225615 0.66489851
0.13179563 -0.098704092 0.67254931
-0.14045693 -0.076248348 0.67582458
0.12800522 -0.028126709 0.67664039
0.13843028 -0.029294375 0.67709428
0.14886978 -0.030463701 0.67755085
-0.13531651 -0.0040136762 0.67589533
-0.11956192 -0.005173428 0.67759621
0.10143976 0.034959465 0.67556947
-0.089773007 0.057752058 0.67403305
-0.13714081 -0.074646264 0.68210852
-0.13545693 -0.073832743 0.68529946
0.13037212 -0.028392149 0.68302608
0.14089714 -0.029571004 0.68348813
0.15143698 -0.030751571 0.6839534
-0.13465248 -0.004062844 0.68417501
-0.1189227 -0.0052209962 0.68382657
0.094099663 0.03175142 0.68051165
0.10536009 0.036672298 0.68617147
0.11265244 0.039861634 0.68099058
-0.087544911 0.056237459 0.68342215
0.1327841 -0.028662648 0.68953341
0.14341104 -0.029852912 0.69000399
-0.13397197 -0.0041132309 0.69265997
0.097925752 0.033423759 0.69121879
-0.085253865 0.054680064 0.69307649
0.13524251 -0.028938351 0.69616598
0.13774864 -0.029219409 0.70292735
0.14727952 -0.030286729 0.70003104
-0.13327438 -0.0041648829 0.70135814
0.10187416 0.035149563 0.70226818
0.10940065 0.038438067 0.69708103
-0.082897171 0.053078048 0.70300758
