# .PCD v0.7 - Point Cloud Data file format
VERSION 0.7
FIELDS x y z
SIZE 4 4 4
TYPE F F F
COUNT 1 1 1
WIDTH 1035
HEIGHT 1
VIEWPOINT 0 0 0 1 0 0 0
POINTS 1035
DATA ascii
-0.0027206815 -0.193866 0.65786713
0.0039066202 -0.19365676 0.65786737
0.010603685 -0.19365676 0.65786743
-0.0035514748 -0.18784761 0.65786749
0.003906623 -0.18807596 0.65786761
0.011278592 -0.1878684 0.65786767
-0.073667727 -0.17691416 0.65786749
-0.06825427 -0.17791875 0.65786749
-0.0087434035 -0.17914675 0.65786833
-0.0039066267 -0.18026288 0.65786821
0.0039066277 -0.18026295 0.65786827
0.011719883 -0.18026292 0.65786862
0.016503517 -0.17866851 0.65786874
-0.081294991 -0.17114735 0.65786791
-0.076234989 -0.17217669 0.65786767
-0.068086892 -0.17244959 0.65786773
-0.060831759 -0.17133345 0.65786809
-0.009959762 -0.17206341 0.65786898
-0.00390663 -0.17244989 0.65786916
0.0039066318 -0.17244986 0.65786922
0.011719897 -0.17244992 0.65786928
0.017300807 -0.17200348 0.65786934
0.069996387 -0.17062905 0.65787029
0.076306291 -0.172095 0.65787029
0.083221279 -0.1702179 0.65787053
-0.080922976 -0.16686875 0.65786827
-0.076397419 -0.1641494 0.6578688
-0.068086967 -0.1640785 0.65786862
-0.059715625 -0.16407847 0.65786886
-0.052795332 -0.16285072 0.65786922
-0.043252014 -0.16017196 0.65786946
-0.035680588 -0.16091609 0.6578694
-0.0281319 -0.1618256 0.6578694
-0.019888323 -0.16270877 0.65786946
-0.011616554 -0.16393396 0.65786964
-0.0039066356 -0.1640787 0.65786976
0.003906636 -0.1640787 0.65786982
0.011719912 -0.16407871 0.65786988
0.019695545 -0.16356128 0.65787035
0.028064026 -0.1619262 0.65787041
0.035478678 -0.16088979 0.65787071
0.040740687 -0.1601723 0.65787077
0.060832001 -0.16191943 0.65787095
0.068149194 -0.16401684 0.65787107
0.076458588 -0.16407895 0.65787119
0.084147848 -0.16420305 0.65787119
0.088736594 -0.16686945 0.65787095
-0.075685658 -0.15587895 0.6578694
-0.068087049 -0.15570726 0.65786964
-0.059715688 -0.15570731 0.65786946
-0.051902439 -0.15570727 0.65786952
-0.044089172 -0.15570731 0.6578697
-0.036275912 -0.15570743 0.65786976
-0.028462643 -0.1557074 0.65786994
-0.02009128 -0.15570746 0.65787029
-0.011719915 -0.15570742 0.65787023
-0.0039066402 -0.15570754 0.65787071
0.0039066407 -0.15570754 0.65787095
0.011719923 -0.15570757 0.65787095
0.020091301 -0.1557076 0.65787119
0.028462686 -0.15570763 0.65787119
0.036275975 -0.15570764 0.65787125
0.043970529 -0.15556522 0.65787125
0.052045681 -0.15496361 0.65787137
0.059715871 -0.1557077 0.65787131
0.068087265 -0.15570779 0.65787143
0.07645867 -0.15570781 0.65787148
0.083279796 -0.15595584 0.65787154
-0.074824058 -0.14813328 0.65786999
-0.068087123 -0.14789413 0.65787023
-0.059715759 -0.14789417 0.65787047
-0.051902495 -0.14789423 0.65787047
-0.044089224 -0.14789419 0.65787083
-0.036275946 -0.1478942 0.65787095
-0.028462678 -0.14789423 0.65787101
-0.020091305 -0.14789429 0.65787119
-0.01171993 -0.14789432 0.65787125
-0.0039066439 -0.14789431 0.65787125
0.0039066449 -0.14789441 0.65787131
0.011719938 -0.14789446 0.65787131
0.020091319 -0.14789447 0.65787131
0.028462712 -0.14789452 0.65787143
0.036276013 -0.14789453 0.65787166
0.044089317 -0.14789453 0.65787172
0.051902626 -0.14789461 0.65787172
0.059715938 -0.14789462 0.6578722
0.068087332 -0.14789465 0.65787214
0.076458737 -0.1478947 0.65787256
0.082191892 -0.14830054 0.65787244
-0.081760444 -0.13701153 0.65787101
-0.075886153 -0.13950861 0.65787107
-0.06808719 -0.14008102 0.65787107
-0.059715822 -0.14008105 0.65787119
-0.051902547 -0.14008111 0.65787125
-0.044089269 -0.14008108 0.65787131
-0.036275987 -0.14008112 0.65787125
-0.028462699 -0.14008117 0.65787131
-0.020091325 -0.14008117 0.65787143
-0.011719941 -0.1400812 0.65787143
-0.0039066486 -0.14008121 0.65787166
0.00390665 -0.14008123 0.65787172
0.011719949 -0.14008129 0.65787202
0.020091344 -0.14008132 0.65787226
0.028462738 -0.14008136 0.65787244
0.036276054 -0.14008136 0.65787274
0.044089362 -0.14008139 0.65787286
0.051902678 -0.14008139 0.65787303
0.05971599 -0.14008151 0.65787297
0.068087414 -0.14008147 0.65787297
0.076458834 -0.14008147 0.65787309
0.08148168 -0.13980247 0.65787321
-0.089480788 -0.12966342 0.65787148
-0.083908498 -0.13190436 0.65787125
-0.076458633 -0.13226783 0.65787131
-0.068087265 -0.13226788 0.65787137
-0.059715889 -0.13226794 0.65787154
-0.0519026 -0.13226789 0.65787166
-0.044089317 -0.13226797 0.65787172
-0.036276028 -0.13226797 0.6578722
-0.02846273 -0.132268 0.65787226
-0.020091346 -0.132268 0.65787214
-0.011719954 -0.13226803 0.65787244
-0.0039066523 -0.1322681 0.65787286
0.0039066528 -0.13226813 0.65787286
0.011719964 -0.13226812 0.65787297
0.020091366 -0.13226816 0.65787297
0.028462775 -0.13226819 0.65787309
0.036276091 -0.13226819 0.65787309
0.044089407 -0.13226824 0.65787327
0.051902734 -0.13226825 0.65787327
0.059716053 -0.13226829 0.65787333
0.068087481 -0.13226831 0.65787357
0.076458909 -0.13226831 0.65787357
0.083908826 -0.13190494 0.65787381
0.089481167 -0.12966396 0.65787423
-0.13035437 -0.12349781 0.65787137
-0.12462628 -0.12368184 0.65787137
-0.11640215 -0.12254114 0.65787143
-0.10838158 -0.12144095 0.65787184
-0.097294159 -0.12185024 0.65787202
-0.091721877 -0.12409125 0.65787184
-0.084271997 -0.12445465 0.65787178
-0.076458707 -0.12445468 0.65787184
-0.068087332 -0.12445472 0.65787214
-0.059715956 -0.12445475 0.65787244
-0.051902659 -0.12445477 0.6578728
-0.044089366 -0.12445478 0.65787297
-0.036276065 -0.12445476 0.65787303
-0.028462766 -0.12445479 0.65787309
-0.020091366 -0.12445486 0.65787303
-0.011719967 -0.12445491 0.65787321
-0.0039066551 -0.1244549 0.65787321
0.0039066565 -0.12445497 0.65787321
0.011719974 -0.12445491 0.65787333
0.020091388 -0.12445501 0.65787363
0.028462801 -0.12445501 0.65787345
0.036276128 -0.12445504 0.65787387
0.044089455 -0.12445503 0.65787381
0.05190279 -0.12445507 0.65787405
0.059716124 -0.12445506 0.65787435
0.068087548 -0.12445515 0.65787464
0.076458991 -0.12445519 0.65787482
0.084272332 -0.12445515 0.65787482
0.091722257 -0.12409179 0.65787494
0.096996963 -0.12199962 0.65787506
-0.13695596 -0.11373931 0.65787208
-0.13209951 -0.11588321 0.65787202
-0.12445469 -0.11608332 0.6578722
-0.1160833 -0.11608335 0.65787196
-0.10771196 -0.11608337 0.65787232
-0.099898659 -0.11608332 0.6578725
-0.092085399 -0.11608335 0.65787262
-0.084272087 -0.11608335 0.65787274
-0.076458797 -0.11608344 0.65787274
-0.068087406 -0.11608346 0.6578728
-0.059716012 -0.11608353 0.65787297
-0.051902723 -0.11608351 0.65787327
-0.04408941 -0.11608352 0.65787345
-0.036276106 -0.11608352 0.65787357
-0.028462799 -0.11608354 0.65787351
-0.02009139 -0.11608355 0.65787393
-0.011719978 -0.11608361 0.65787399
-0.0039066602 -0.11608363 0.65787411
0.0039066612 -0.11608364 0.65787423
0.011719987 -0.11608364 0.65787452
0.020091409 -0.11608369 0.65787464
0.028462838 -0.1160837 0.65787476
0.036276169 -0.11608372 0.65787494
0.044089504 -0.11608374 0.65787494
0.051902842 -0.11608379 0.657875
0.059716191 -0.11608384 0.65787506
0.06808763 -0.11608379 0.65787506
0.076459073 -0.11608391 0.65787512
0.084272429 -0.11608388 0.65787518
0.092085786 -0.11608391 0.65787536
0.099413849 -0.1154773 0.65787542
0.1079916 -0.11357257 0.65787596
0.11641886 -0.11446555 0.6578759
0.12460103 -0.11530752 0.65787613
0.13214476 -0.11595998 0.65787596
0.13710569 -0.11347961 0.65787643
-0.13111342 -0.10867426 0.65787274
-0.12445483 -0.10771202 0.65787303
-0.11608348 -0.10771204 0.65787286
-0.10771207 -0.10771208 0.65787309
-0.099898785 -0.1077121 0.65787321
-0.092085488 -0.1077121 0.65787321
-0.084272191 -0.1077121 0.65787333
-0.076458886 -0.10771213 0.65787333
-0.068087496 -0.10771214 0.65787363
-0.059716094 -0.10771216 0.65787363
-0.051902771 -0.10771217 0.65787423
-0.044089463 -0.10771221 0.65787429
-0.036276147 -0.10771226 0.65787452
-0.028462829 -0.10771224 0.65787452
-0.020091413 -0.10771232 0.6578747
-0.011719993 -0.10771229 0.65787488
-0.0039066649 -0.10771234 0.65787482
0.0039066658 -0.10771234 0.657875
0.011719998 -0.1077124 0.65787506
0.020091431 -0.10771243 0.65787512
0.028462868 -0.10771242 0.65787512
0.03627621 -0.10771243 0.65787524
0.044089556 -0.10771246 0.65787536
0.051902909 -0.10771243 0.6578753
0.059716254 -0.10771249 0.65787554
0.068087712 -0.10771251 0.65787554
0.076459169 -0.10771252 0.65787601
0.084272519 -0.10771257 0.65787613
0.092085876 -0.10771257 0.65787655
0.099899262 -0.10771256 0.65787655
0.10771262 -0.10771264 0.65787679
0.1160841 -0.10771261 0.65787661
0.12445557 -0.10771268 0.65787685
0.13226894 -0.10771265 0.65787691
0.13858125 -0.10740478 0.65787697
-0.12891965 -0.10324734 0.65787321
-0.12363423 -0.10071955 0.65787339
-0.11608358 -0.099898912 0.65787375
-0.10771218 -0.099898867 0.65787357
-0.09989889 -0.099898882 0.65787399
-0.092085592 -0.099898934 0.65787399
-0.08427228 -0.099898919 0.65787429
-0.076458968 -0.099898949 0.65787435
-0.068087555 -0.099898987 0.65787476
-0.05971615 -0.099899016 0.65787488
-0.051902831 -0.099899001 0.65787488
-0.044089511 -0.099899039 0.657875
-0.036276184 -0.099899009 0.65787506
-0.028462863 -0.099899061 0.657875
-0.020091433 -0.099899076 0.65787512
-0.011720004 -0.099899076 0.65787524
-0.0039066691 -0.099899091 0.6578753
0.00390667 -0.099899128 0.65787536
0.011720014 -0.099899136 0.65787554
0.02009145 -0.099899165 0.65787566
0.028462896 -0.099899188 0.65787584
0.036276247 -0.099899203 0.65787625
0.0440896 -0.099899165 0.65787607
0.051902957 -0.099899255 0.65787649
0.059716307 -0.099899217 0.65787661
0.068087779 -0.099899285 0.65787661
0.076459229 -0.09989927 0.65787679
0.084272616 -0.099899299 0.65787691
0.092085995 -0.099899344 0.65787691
0.099899352 -0.099899381 0.65787703
0.10771275 -0.099899352 0.65787709
0.11608421 -0.099899374 0.65787745
0.1244557 -0.099899411 0.65787733
0.13190566 -0.10026283 0.65787721
0.13747798 -0.10250387 0.6578775
-0.12110648 -0.095434144 0.65787405
-0.11557116 -0.092267863 0.65787476
-0.10771231 -0.092085645 0.65787488
-0.099898994 -0.092085637 0.65787488
-0.09208566 -0.09208566 0.657875
-0.084272362 -0.092085689 0.65787506
-0.076459043 -0.092085704 0.65787506
-0.068087623 -0.092085697 0.65787512
-0.059716221 -0.092085741 0.65787524
-0.051902883 -0.092085771 0.6578753
-0.044089556 -0.092085801 0.65787524
-0.036276221 -0.092085838 0.65787536
-0.028462889 -0.092085801 0.65787554
-0.020091454 -0.092085838 0.65787566
-0.011720018 -0.092085861 0.65787578
-0.0039066728 -0.092085846 0.65787625
0.0039066738 -0.092085876 0.65787637
0.011720022 -0.092085905 0.65787661
0.020091474 -0.092085913 0.65787649
0.028462926 -0.092085935 0.65787679
0.036276288 -0.092085943 0.65787685
0.044089653 -0.092085965 0.65787691
0.051903009 -0.092085995 0.65787703
0.059716385 -0.092086017 0.65787709
0.068087853 -0.092086062 0.65787739
0.076459318 -0.092086039 0.65787715
0.084272698 -0.092086062 0.65787727
0.092086084 -0.092086092 0.65787739
0.099899471 -0.092086099 0.6578778
0.10771287 -0.092086114 0.65787792
0.11608435 -0.092086092 0.6578781
0.12409241 -0.092449538 0.65787828
0.12966472 -0.094690591 0.65787798
-0.12110673 -0.080923848 0.65787536
-0.11593914 -0.084169038 0.65787506
-0.10771242 -0.084272414 0.65787506
-0.099899091 -0.084272422 0.65787524
-0.092085771 -0.084272444 0.6578753
-0.084272452 -0.084272474 0.6578753
-0.076459125 -0.084272482 0.65787554
-0.068087697 -0.084272496 0.65787554
-0.059716269 -0.084272519 0.6578759
-0.051902935 -0.084272519 0.65787607
-0.044089608 -0.084272519 0.65787631
-0.036276262 -0.084272549 0.65787661
-0.02846292 -0.084272571 0.65787667
-0.020091478 -0.084272563 0.65787655
-0.01172003 -0.084272601 0.65787691
-0.0039066765 -0.084272631 0.65787703
0.0039066784 -0.084272616 0.65787691
0.011720037 -0.08427266 0.65787703
0.020091495 -0.08427266 0.65787709
0.028462959 -0.084272675 0.65787715
0.036276329 -0.084272683 0.65787715
0.044089701 -0.084272712 0.65787739
0.051903069 -0.084272727 0.65787768
0.059716448 -0.084272742 0.65787816
0.068087921 -0.084272765 0.65787822
0.0764594 -0.084272787 0.65787816
0.084272794 -0.084272787 0.6578784
0.092086181 -0.084272802 0.65787864
0.099899568 -0.084272824 0.65787864
0.10771297 -0.084272839 0.6578787
0.11608447 -0.084272869 0.65787882
0.12160344 -0.085265033 0.6578787
-0.12182434 -0.075661853 0.65787584
-0.11608394 -0.076459117 0.65787566
-0.10771252 -0.076459162 0.65787601
-0.099899203 -0.076459154 0.65787601
-0.092085868 -0.076459199 0.65787625
-0.084272563 -0.076459192 0.65787637
-0.076459207 -0.076459207 0.65787661
-0.068087786 -0.076459214 0.65787655
-0.059716333 -0.076459214 0.65787685
-0.051903006 -0.076459266 0.65787691
-0.044089645 -0.076459244 0.65787703
-0.036276303 -0.076459274 0.65787703
-0.02846295 -0.076459281 0.65787703
-0.020091495 -0.076459296 0.65787733
-0.011720042 -0.076459333 0.65787727
-0.0039066817 -0.076459348 0.65787715
0.0039066831 -0.076459363 0.65787745
0.011720049 -0.076459356 0.65787762
0.020091515 -0.076459393 0.65787804
0.028462989 -0.0764594 0.6578781
0.036276359 -0.076459415 0.65787834
0.044089742 -0.076459408 0.65787858
0.051903132 -0.076459453 0.65787864
0.0597165 -0.076459445 0.6578787
0.068087995 -0.076459475 0.65787882
0.076459482 -0.076459467 0.65787882
0.084272884 -0.076459497 0.65787888
0.092086285 -0.076459512 0.65787894
0.099899694 -0.076459534 0.65787905
0.1077131 -0.076459512 0.65787911
0.11608458 -0.076459549 0.65787905
0.12185164 -0.075864278 0.65787959
-0.12293342 -0.067631125 0.65787667
-0.11608408 -0.068087764 0.65787631
-0.10771265 -0.068087779 0.65787661
-0.099899307 -0.068087779 0.65787661
-0.09208598 -0.068087831 0.65787679
-0.084272638 -0.068087809 0.65787727
-0.076459296 -0.068087839 0.65787733
-0.068087853 -0.068087883 0.6578775
-0.059716407 -0.068087876 0.65787739
-0.051903047 -0.068087883 0.6578775
-0.044089694 -0.068087906 0.65787774
-0.03627634 -0.068087921 0.65787774
-0.02846298 -0.068087898 0.65787804
-0.020091521 -0.068087935 0.6578781
-0.011720059 -0.068087935 0.65787852
-0.0039066859 -0.068087958 0.65787858
0.0039066868 -0.068087965 0.6578787
0.011720062 -0.06808798 0.65787876
0.020091537 -0.068088003 0.65787882
0.028463015 -0.068088003 0.65787882
0.036276408 -0.068088032 0.65787894
0.044089794 -0.068088032 0.65787894
0.051903188 -0.068088062 0.65787917
0.059716571 -0.068088047 0.65787905
0.068088077 -0.068088084 0.65787905
0.076459587 -0.068088084 0.65787929
0.084272973 -0.068088099 0.65787941
0.092086375 -0.068088122 0.65787971
0.099899776 -0.068088137 0.65787983
0.10771322 -0.068088144 0.65787995
0.11608471 -0.068088144 0.65788007
0.12285169 -0.067669593 0.65788054
-0.13729189 -0.056367807 0.65787721
-0.13158213 -0.056968845 0.65787727
-0.12410048 -0.059488103 0.65787709
-0.11608421 -0.059716366 0.65787733
-0.10771277 -0.059716418 0.65787709
-0.099899426 -0.05971643 0.65787733
-0.092086062 -0.059716426 0.65787756
-0.084272727 -0.059716448 0.65787745
-0.076459385 -0.059716463 0.65787786
-0.068087935 -0.059716471 0.65787828
-0.059716474 -0.059716448 0.65787834
-0.05190311 -0.059716489 0.65787858
-0.044089746 -0.059716497 0.65787864
-0.036276378 -0.059716497 0.65787864
-0.028463015 -0.059716512 0.65787882
-0.020091543 -0.059716523 0.65787888
-0.011720069 -0.059716526 0.65787894
-0.0039066905 -0.059716538 0.65787894
0.0039066914 -0.059716556 0.65787905
0.011720076 -0.059716538 0.65787911
0.020091563 -0.059716575 0.65787923
0.028463053 -0.059716575 0.65787917
0.036276445 -0.05971659 0.65787941
0.044089843 -0.05971662 0.65787983
0.051903248 -0.059716627 0.65787983
0.059716642 -0.059716642 0.65788031
0.068088152 -0.059716634 0.65788019
0.076459669 -0.059716668 0.65788049
0.084273078 -0.059716713 0.65788066
0.092086479 -0.059716675 0.6578806
0.099899895 -0.059716687 0.65788072
0.10771333 -0.059716728 0.65788072
0.11608486 -0.059716739 0.65788108
0.12368362 -0.059545029 0.6578809
-0.15426467 -0.049998961 0.6578775
-0.14764777 -0.050910886 0.65787739
-0.13996372 -0.051760562 0.65787739
-0.13226913 -0.051903062 0.65787745
-0.12445576 -0.051903054 0.65787792
-0.11608431 -0.051903091 0.65787804
-0.10771289 -0.051903103 0.65787828
-0.099899538 -0.051903088 0.65787846
-0.092086166 -0.051903121 0.65787858
-0.084272824 -0.051903125 0.65787864
-0.07645946 -0.051903132 0.65787864
-0.068088003 -0.051903177 0.65787882
-0.05971653 -0.051903185 0.65787888
-0.051903181 -0.051903173 0.65787894
-0.04408979 -0.051903173 0.65787894
-0.036276422 -0.05190317 0.65787905
-0.028463047 -0.051903196 0.65787911
-0.020091563 -0.051903199 0.65787917
-0.011720082 -0.051903218 0.65787929
-0.0039066938 -0.051903248 0.65787947
0.0039066956 -0.051903248 0.65787983
0.011720089 -0.051903259 0.65788031
0.020091584 -0.05190327 0.65788013
0.028463084 -0.051903252 0.6578806
0.036276482 -0.051903278 0.65788049
0.044089891 -0.051903278 0.65788066
0.0519033 -0.051903285 0.65788072
0.059716713 -0.051903293 0.65788072
0.068088226 -0.0519033 0.65788078
0.076459743 -0.051903345 0.65788096
0.084273152 -0.051903341 0.65788096
0.092086576 -0.051903337 0.6578809
0.0999 -0.05190336 0.65788108
0.10771345 -0.051903378 0.65788144
0.11608499 -0.051903367 0.65788174
0.12445651 -0.051903404 0.65788192
0.13174127 -0.049612254 0.65788192
0.13840914 -0.048554819 0.65788221
-0.1545931 -0.044089723 0.65787798
-0.14789596 -0.044089735 0.65787834
-0.1400826 -0.044089757 0.65787864
-0.13226922 -0.044089757 0.65787864
-0.1244559 -0.044089761 0.6578787
-0.11608446 -0.044089764 0.65787876
-0.107713 -0.044089779 0.65787888
-0.099899635 -0.044089783 0.65787888
-0.092086263 -0.044089798 0.65787894
-0.084272899 -0.044089798 0.65787905
-0.076459542 -0.044089805 0.65787911
-0.06808807 -0.044089813 0.65787917
-0.059716605 -0.044089813 0.65787929
-0.051903233 -0.044089831 0.65787959
-0.044089843 -0.044089843 0.65787989
-0.03627646 -0.044089846 0.65788007
-0.028463075 -0.044089872 0.65788031
-0.020091582 -0.044089854 0.65788019
-0.011720093 -0.044089884 0.6578806
-0.0039066975 -0.044089895 0.65788049
0.0039066989 -0.044089895 0.65788066
0.011720099 -0.044089887 0.65788072
0.020091606 -0.044089917 0.6578809
0.028463116 -0.044089921 0.65788084
0.036276523 -0.044089925 0.65788096
0.044089939 -0.044089936 0.65788096
0.051903348 -0.044089954 0.65788114
0.059716776 -0.044089954 0.6578812
0.068088293 -0.044089947 0.65788168
0.076459818 -0.044089969 0.6578815
0.084273249 -0.044089988 0.65788186
0.092086688 -0.044089984 0.65788221
0.099900119 -0.044090007 0.65788221
0.10771354 -0.044090014 0.65788239
0.11608507 -0.044090007 0.65788251
0.12445665 -0.044090036 0.65788245
0.13227008 -0.044090029 0.65788269
0.14008354 -0.044090033 0.65788275
0.14762549 -0.043185007 0.65788281
0.15439729 -0.042120289 0.65788305
-0.15444443 -0.036797289 0.65787882
-0.14789611 -0.036276408 0.65787888
-0.14008273 -0.036276411 0.65787894
-0.1322694 -0.036276408 0.65787905
-0.12445605 -0.036276422 0.65787905
-0.11608458 -0.036276434 0.65787917
-0.1077131 -0.036276441 0.65787917
-0.099899746 -0.036276437 0.65787965
-0.092086375 -0.036276456 0.65787959
-0.084272988 -0.036276463 0.65788007
-0.076459639 -0.036276456 0.65788013
-0.068088152 -0.036276463 0.65788019
-0.059716672 -0.036276471 0.65788043
-0.051903278 -0.036276478 0.65788066
-0.044089887 -0.036276493 0.65788066
-0.036276497 -0.036276497 0.65788072
-0.028463103 -0.036276497 0.65788072
-0.020091608 -0.036276512 0.65788078
-0.011720106 -0.036276516 0.6578809
-0.0039067012 -0.036276534 0.6578809
0.0039067026 -0.036276553 0.65788114
0.011720113 -0.036276549 0.65788114
0.020091625 -0.036276542 0.65788144
0.028463142 -0.036276549 0.6578815
0.03627656 -0.03627656 0.65788174
0.044089988 -0.036276575 0.65788174
0.051903412 -0.036276583 0.65788227
0.059716832 -0.036276575 0.65788227
0.06808836 -0.036276583 0.65788233
0.0764599 -0.03627659 0.65788251
0.084273338 -0.036276598 0.65788263
0.09208677 -0.036276601 0.65788269
0.099900208 -0.03627662 0.65788269
0.10771366 -0.036276605 0.65788269
0.11608521 -0.03627662 0.65788287
0.12445678 -0.036276639 0.65788293
0.13227023 -0.036276642 0.65788311
0.14008369 -0.036276653 0.65788317
0.14789714 -0.036276661 0.65788317
0.15459439 -0.036276665 0.65788352
-0.14630164 -0.031492725 0.65787935
-0.1396461 -0.030452799 0.65787965
-0.13199802 -0.029368091 0.65787947
-0.12445617 -0.028463062 0.65788007
-0.1160847 -0.028463079 0.65788025
-0.10771324 -0.028463088 0.65788043
-0.099899858 -0.028463092 0.65788066
-0.092086472 -0.028463092 0.65788066
-0.084273085 -0.028463108 0.65788072
-0.076459698 -0.028463094 0.65788072
-0.068088219 -0.02846311 0.6578806
-0.059716716 -0.02846312 0.6578809
-0.05190333 -0.028463123 0.6578809
-0.044089936 -0.028463125 0.65788096
-0.036276538 -0.028463131 0.65788108
-0.028463133 -0.028463138 0.65788126
-0.020091629 -0.028463136 0.65788168
-0.011720117 -0.02846314 0.65788174
-0.0039067087 -0.028463155 0.65788186
0.0039067091 -0.028463155 0.65788198
0.011720127 -0.028463157 0.65788239
0.020091649 -0.028463164 0.65788263
0.028463172 -0.028463164 0.65788245
0.036276598 -0.028463172 0.65788251
0.044090029 -0.028463179 0.65788263
0.051903468 -0.0284632 0.65788269
0.059716891 -0.028463198 0.65788275
0.068088442 -0.028463187 0.65788275
0.076459982 -0.028463203 0.65788299
0.084273428 -0.028463215 0.65788293
0.092086881 -0.028463215 0.65788299
0.099900335 -0.028463228 0.65788341
0.10771377 -0.028463228 0.65788341
0.11608534 -0.028463233 0.65788364
0.12445691 -0.028463243 0.65788376
0.13227037 -0.028463231 0.65788418
0.14008383 -0.028463246 0.6578843
0.1478973 -0.028463259 0.65788448
0.1543341 -0.028909739 0.65788448
-0.12407681 -0.020337163 0.65788072
-0.11608484 -0.020091614 0.65788066
-0.10771336 -0.020091612 0.65788108
-0.09989997 -0.020091608 0.65788084
-0.092086591 -0.020091619 0.6578812
-0.084273182 -0.020091614 0.65788132
-0.076459803 -0.020091619 0.65788138
-0.068088293 -0.020091623 0.65788168
-0.059716791 -0.020091632 0.6578818
-0.051903393 -0.020091634 0.65788186
-0.04408998 -0.020091634 0.65788215
-0.036276579 -0.020091636 0.65788233
-0.028463166 -0.020091644 0.65788251
-0.020091649 -0.020091651 0.65788257
-0.011720135 -0.020091653 0.65788257
-0.0039067115 -0.020091657 0.65788263
0.0039067124 -0.020091666 0.65788263
0.011720138 -0.02009167 0.65788269
0.020091668 -0.020091675 0.65788275
0.028463209 -0.020091671 0.65788281
0.036276642 -0.020091681 0.65788287
0.044090085 -0.020091683 0.65788305
0.051903524 -0.020091683 0.65788311
0.059716966 -0.020091688 0.65788335
0.068088517 -0.020091686 0.65788358
0.076460063 -0.020091701 0.65788358
0.084273525 -0.020091699 0.65788394
0.092086971 -0.020091709 0.65788412
0.099900424 -0.020091711 0.65788418
0.10771389 -0.020091712 0.6578843
0.11608547 -0.020091712 0.65788448
0.12433301 -0.020215742 0.65788472
0.13205443 -0.02205408 0.6578846
0.13971186 -0.023068272 0.6578846
0.14640911 -0.023812411 0.6578846
-0.12305219 -0.011936151 0.65788132
-0.11608497 -0.011720111 0.65788156
-0.10771348 -0.011720113 0.65788168
-0.099900082 -0.011720118 0.65788168
-0.092086688 -0.011720128 0.65788198
-0.084273279 -0.011720128 0.65788227
-0.076459877 -0.011720127 0.65788239
-0.068088368 -0.011720124 0.65788257
-0.059716865 -0.011720132 0.65788251
-0.051903453 -0.01172013 0.65788269
-0.044090036 -0.011720137 0.65788269
-0.03627662 -0.011720143 0.65788269
-0.0284632 -0.011720143 0.65788275
-0.020091677 -0.011720142 0.65788287
-0.011720146 -0.011720145 0.65788299
-0.0039067157 -0.01172015 0.65788299
0.0039067166 -0.011720146 0.65788299
0.011720153 -0.011720154 0.65788347
0.020091692 -0.011720155 0.6578837
0.028463237 -0.011720157 0.65788418
0.036276683 -0.011720154 0.65788412
0.044090129 -0.01172016 0.65788424
0.051903579 -0.011720161 0.65788442
0.059717029 -0.011720164 0.65788442
0.068088599 -0.011720167 0.6578843
0.07646016 -0.011720164 0.65788466
0.084273614 -0.011720171 0.65788466
0.092087083 -0.011720174 0.65788472
0.099900544 -0.011720174 0.65788478
0.10771401 -0.011720177 0.65788478
0.1160856 -0.011720178 0.65788513
0.12323949 -0.0120246 0.65788525
-0.12222419 -0.0043531889 0.65788203
-0.11608507 -0.0039067101 0.65788251
-0.10771358 -0.003906711 0.65788263
-0.099900186 -0.0039067115 0.65788263
-0.092086792 -0.0039067105 0.65788269
-0.084273376 -0.0039067115 0.65788269
-0.076459959 -0.0039067115 0.65788275
-0.068088457 -0.0039067133 0.65788281
-0.059716929 -0.0039067143 0.65788293
-0.051903505 -0.0039067157 0.65788299
-0.044090081 -0.0039067166 0.65788323
-0.036276661 -0.0039067171 0.65788323
-0.02846323 -0.0039067185 0.65788341
-0.020091698 -0.0039067171 0.6578837
-0.011720156 -0.0039067185 0.65788388
-0.0039067194 -0.0039067194 0.65788418
0.0039067208 -0.0039067203 0.65788442
0.011720164 -0.0039067199 0.65788454
0.020091712 -0.0039067222 0.65788424
0.028463269 -0.0039067231 0.65788454
0.03627672 -0.0039067226 0.65788466
0.044090178 -0.0039067231 0.65788466
0.051903632 -0.0039067254 0.65788472
0.059717085 -0.0039067254 0.65788478
0.068088673 -0.0039067268 0.65788513
0.076460235 -0.0039067268 0.65788507
0.084273711 -0.0039067282 0.65788531
0.092087165 -0.0039067292 0.65788543
0.099900663 -0.0039067292 0.65788549
0.10771414 -0.0039067301 0.65788597
0.11608571 -0.0039067301 0.65788615
0.12216613 -0.004435461 0.65788579
-0.12138715 0.0027905097 0.65788281
-0.11608521 0.0039067147 0.65788287
-0.10771368 0.0039067157 0.65788299
-0.099900298 0.0039067157 0.65788299
-0.092086881 0.0039067166 0.65788299
-0.084273465 0.0039067175 0.65788352
-0.076460049 0.0039067194 0.65788352
-0.068088524 0.003906718 0.65788364
-0.059716988 0.0039067208 0.65788394
-0.051903564 0.0039067208 0.65788418
-0.044090129 0.0039067222 0.6578843
-0.036276694 0.0039067222 0.65788442
-0.028463261 0.0039067212 0.65788442
-0.020091716 0.0039067236 0.6578843
-0.011720169 0.0039067245 0.65788466
-0.0039067236 0.0039067245 0.65788466
0.0039067245 0.0039067264 0.65788472
0.011720176 0.0039067254 0.65788478
0.020091737 0.0039067254 0.65788502
0.0284633 0.0039067278 0.65788502
0.036276758 0.0039067287 0.65788531
0.044090223 0.0039067306 0.65788543
0.051903687 0.0039067282 0.65788573
0.059717167 0.0039067306 0.65788573
0.068088733 0.0039067315 0.65788609
0.076460309 0.0039067324 0.65788627
0.084273793 0.0039067352 0.65788627
0.092087276 0.0039067343 0.65788633
0.099900752 0.0039067352 0.65788645
0.10771424 0.0039067352 0.65788651
0.11608585 0.0039067357 0.65788656
0.12133203 0.0018975571 0.65788651
-0.12334067 0.012836359 0.6578837
-0.11608534 0.011720158 0.65788382
-0.10771382 0.011720155 0.65788412
-0.099900395 0.011720158 0.65788418
-0.092086978 0.011720161 0.65788424
-0.084273569 0.01172016 0.65788442
-0.076460131 0.011720162 0.65788448
-0.068088591 0.01172017 0.65788424
-0.059717067 0.011720171 0.65788466
-0.051903617 0.011720172 0.65788466
-0.044090182 0.011720176 0.65788472
-0.036276728 0.011720176 0.65788472
-0.028463285 0.011720176 0.65788478
-0.020091737 0.011720182 0.65788507
-0.011720183 0.011720187 0.65788525
-0.0039067278 0.011720187 0.65788543
0.0039067292 0.011720187 0.65788567
0.01172019 0.011720188 0.65788555
0.020091755 0.011720191 0.65788603
0.028463325 0.011720195 0.65788627
0.036276791 0.011720195 0.65788621
0.044090271 0.011720196 0.65788633
0.05190374 0.011720197 0.65788633
0.059717223 0.011720201 0.65788645
0.068088807 0.011720202 0.65788651
0.076460399 0.011720208 0.65788656
0.08427389 0.011720209 0.65788668
0.092087373 0.011720211 0.65788668
0.099900857 0.011720213 0.6578868
0.10771436 0.011720212 0.65788692
0.11538537 0.011648971 0.6578871
-0.13673529 0.023998437 0.65788442
-0.13137746 0.021319536 0.65788448
-0.12445699 0.020091711 0.65788418
-0.11608547 0.020091714 0.65788412
-0.10771394 0.020091722 0.65788478
-0.099900499 0.020091726 0.6578849
-0.092087075 0.020091737 0.65788466
-0.084273644 0.020091739 0.65788496
-0.07646019 0.02009174 0.65788502
-0.068088666 0.020091746 0.65788519
-0.059717119 0.020091752 0.65788519
-0.051903676 0.020091752 0.65788555
-0.04409023 0.020091748 0.65788591
-0.036276769 0.020091752 0.65788591
-0.028463321 0.020091753 0.65788603
-0.020091761 0.020091755 0.65788627
-0.011720195 0.020091759 0.65788615
-0.0039067334 0.020091766 0.65788639
0.0039067338 0.020091774 0.65788645
0.011720201 0.020091785 0.65788651
0.020091776 0.020091778 0.65788651
0.028463358 0.020091787 0.65788656
0.036276843 0.020091791 0.65788662
0.044090312 0.020091796 0.65788686
0.051903814 0.020091796 0.65788686
0.05971729 0.020091804 0.65788686
0.068088882 0.0200918 0.65788698
0.076460488 0.020091811 0.6578874
0.084273987 0.020091811 0.6578874
0.092087485 0.020091813 0.65788764
0.099900976 0.020091811 0.65788776
0.10771449 0.020091813 0.657888
0.11608613 0.020091813 0.65788794
0.12285622 0.021766154 0.65788835
-0.13847169 0.028835354 0.65788484
-0.13227054 0.028463293 0.65788478
-0.12445714 0.028463298 0.65788472
-0.1160856 0.028463295 0.65788507
-0.10771405 0.02846331 0.65788502
-0.099900626 0.028463306 0.65788543
-0.092087179 0.028463319 0.65788531
-0.084273748 0.028463317 0.65788579
-0.076460302 0.028463319 0.65788597
-0.068088748 0.028463328 0.65788621
-0.059717178 0.028463325 0.65788621
-0.05190374 0.02846333 0.65788633
-0.044090275 0.028463345 0.65788645
-0.036276814 0.028463345 0.65788651
-0.028463354 0.028463354 0.65788651
-0.020091783 0.028463358 0.65788651
-0.011720209 0.028463356 0.65788656
-0.0039067375 0.028463377 0.6578868
0.003906738 0.028463379 0.6578868
0.011720218 0.02846338 0.6578868
0.020091802 0.02846338 0.65788704
0.028463388 0.028463393 0.65788746
0.036276877 0.028463412 0.65788752
0.044090364 0.028463408 0.65788794
0.051903855 0.02846342 0.65788811
0.059717353 0.028463414 0.65788823
0.068088971 0.02846342 0.65788794
0.076460578 0.028463429 0.65788835
0.084274091 0.028463434 0.65788829
0.092087597 0.028463436 0.65788835
0.099901102 0.028463438 0.65788847
0.10771459 0.028463444 0.65788853
0.11608624 0.028463449 0.65788883
0.12445787 0.028463453 0.65788859
0.13059708 0.029858734 0.65788925
-0.13747965 0.034974523 0.65788537
-0.13227069 0.03627678 0.65788555
-0.12445727 0.036276784 0.65788579
-0.11624368 0.036087245 0.65788609
-0.10780717 0.035253599 0.65788621
-0.099830993 0.036207031 0.65788627
-0.092087299 0.036276791 0.65788633
-0.084273845 0.036276806 0.65788645
-0.076460369 0.03627684 0.65788651
-0.068088807 0.036276828 0.65788651
-0.059717253 0.036276836 0.65788656
-0.051903792 0.036276843 0.65788656
-0.044090319 0.036276847 0.65788674
-0.036276862 0.036276855 0.65788692
-0.02846338 0.036276858 0.65788698
-0.020091804 0.036276869 0.65788692
-0.011720224 0.036276877 0.6578871
-0.0039067413 0.036276877 0.65788776
0.0039067427 0.036276896 0.65788794
0.011720231 0.036276896 0.65788811
0.020091821 0.036276899 0.657888
0.028463425 0.03627691 0.65788823
0.036276914 0.03627691 0.65788829
0.04409042 0.03627691 0.65788835
0.051903918 0.036276922 0.65788847
0.059717428 0.036276948 0.65788853
0.068089038 0.036276944 0.65788877
0.07646066 0.036276948 0.65788859
0.084274165 0.036276955 0.65788871
0.092087686 0.03627697 0.65788889
0.099901229 0.036276981 0.65788937
0.10771474 0.036276974 0.65788937
0.11608636 0.036276985 0.65788978
0.12445799 0.036277 0.65788972
0.13220176 0.036346771 0.65789002
0.13695966 0.036723495 0.65788984
-0.13182431 0.041634601 0.65788609
-0.12512708 0.041076507 0.65788615
-0.098040469 0.042229958 0.65788662
-0.092017598 0.044020548 0.6578868
-0.084273919 0.044090331 0.6578868
-0.076460451 0.044090338 0.65788698
-0.068088889 0.044090357 0.6578871
-0.059717309 0.044090353 0.65788734
-0.051903848 0.04409036 0.65788758
-0.044090368 0.044090368 0.65788776
-0.036276892 0.044090368 0.657888
-0.028463412 0.044090386 0.65788811
-0.020091822 0.044090394 0.65788811
-0.011720235 0.044090409 0.65788835
-0.0039067455 0.044090431 0.65788835
0.0039067464 0.04409042 0.65788847
0.01172024 0.044090431 0.65788847
0.020091847 0.044090431 0.65788871
0.028463453 0.044090446 0.65788871
0.036276963 0.04409045 0.65788859
0.044090472 0.044090472 0.65788877
0.051903967 0.044090476 0.65788907
0.059717491 0.044090472 0.65788937
0.068089113 0.044090487 0.65788972
0.076460727 0.044090506 0.65788984
0.084274255 0.044090513 0.65789002
0.092087798 0.044090521 0.65789008
0.099257313 0.042502049 0.65788978
0.10802274 0.042550914 0.65788996
0.11633205 0.043711018 0.65789032
0.12445813 0.044090535 0.65789032
0.13108566 0.043532446 0.65789032
-0.090165101 0.050539583 0.65788752
-0.084274016 0.051903855 0.65788794
-0.076460533 0.051903863 0.65788805
-0.068088956 0.051903881 0.65788794
-0.059717368 0.051903889 0.65788811
-0.051903896 0.05190387 0.65788829
-0.04409042 0.051903896 0.65788835
-0.036276925 0.051903918 0.65788847
-0.028463436 0.051903926 0.65788847
-0.02009185 0.051903937 0.65788877
-0.011720244 0.051903948 0.65788871
-0.0039067492 0.051903959 0.65788871
0.0039067506 0.051903948 0.65788907
0.011720252 0.051903989 0.65788913
0.020091865 0.051904004 0.65788949
0.028463485 0.051903989 0.6578896
0.036276996 0.051904 0.65788972
0.044090509 0.051904 0.65789002
0.05190403 0.051904023 0.65789008
0.059717547 0.051904041 0.65789008
0.06808918 0.051904049 0.65789026
0.076460816 0.051904071 0.65789032
0.084204584 0.051834289 0.65789032
0.09073665 0.050082874 0.65789032
0.12557442 0.048927519 0.65789074
0.1294812 0.04911356 0.6578908
-0.082701236 0.05844897 0.65788841
-0.076460622 0.059717406 0.65788847
-0.068089023 0.059717454 0.65788877
-0.059717443 0.059717435 0.65788853
-0.051903952 0.059717476 0.65788877
-0.044090461 0.059717461 0.65788883
-0.03627697 0.059717499 0.65788925
-0.028463477 0.059717499 0.65788931
-0.020091867 0.05971751 0.65788978
-0.011720257 0.059717517 0.6578896
-0.0039067543 0.059717529 0.6578899
0.0039067562 0.05971754 0.65789008
0.011720265 0.059717547 0.65789026
0.020091891 0.059717562 0.65789026
0.02846352 0.059717562 0.65789026
0.036277033 0.059717562 0.65789032
0.044090554 0.059717581 0.65789038
0.051904079 0.05971761 0.65789038
0.059717607 0.059717596 0.6578905
0.068089247 0.059717618 0.65789044
0.076391131 0.059647888 0.65789074
0.082414046 0.057857275 0.65789092
-0.081935465 0.068700351 0.65788925
-0.076460697 0.068089083 0.65788937
-0.068089105 0.068089128 0.65788984
-0.059717502 0.068089105 0.65788972
-0.051904019 0.068089128 0.65788978
-0.044090513 0.068089135 0.65789002
-0.036277007 0.068089157 0.6578902
-0.028463501 0.068089165 0.65789014
-0.020091893 0.068089157 0.65789032
-0.011720272 0.068089209 0.65789032
-0.0039067571 0.068089224 0.65789038
0.003906758 0.068089195 0.65789038
0.011720282 0.068089247 0.65789062
0.020091917 0.068089269 0.65789056
0.028463546 0.068089262 0.6578908
0.036277078 0.068089284 0.65789074
0.044090603 0.068089291 0.65789092
0.051904134 0.068089314 0.65789098
0.059717681 0.068089336 0.65789121
0.068089336 0.068089321 0.65789145
0.074768648 0.068035327 0.65789175
-0.082948796 0.076670088 0.6578902
-0.076460794 0.076460801 0.65789014
-0.068089187 0.076460794 0.65789032
-0.059717577 0.076460823 0.65789026
-0.051904071 0.076391064 0.65789038
-0.044090562 0.076460853 0.65789038
-0.036277059 0.07646089 0.65789038
-0.028463541 0.076460883 0.65789062
-0.020091919 0.076460935 0.65789062
-0.011720287 0.076460905 0.65789092
-0.0039067622 0.076460943 0.65789115
0.0039067632 0.076460943 0.65789104
0.011720295 0.076460972 0.65789139
0.02009193 0.076460972 0.65789163
0.02846358 0.076460987 0.65789187
0.036277115 0.07646098 0.65789205
0.044090655 0.076461002 0.65789211
0.051904198 0.076461039 0.65789217
0.059717752 0.076461002 0.65789229
0.068089403 0.076461069 0.65789205
0.075525865 0.076611921 0.65789241
-0.084056012 0.084419988 0.65789062
-0.07646089 0.084274396 0.6578905
-0.068089262 0.084274404 0.65789044
-0.060538378 0.083453655 0.65789086
-0.055252749 0.08092574 0.65789074
-0.043481749 0.081331663 0.65789104
-0.035890695 0.082514271 0.65789121
-0.028212413 0.083604768 0.65789157
-0.02009193 0.084274493 0.65789169
-0.0117203 0.084274508 0.65789205
-0.0039067669 0.084274516 0.65789193
0.0039067678 0.084274553 0.65789211
0.011720304 0.084274583 0.65789217
0.020020925 0.084213719 0.65789211
0.028287357 0.083422735 0.65789223
0.03594641 0.082579605 0.65789229
0.043959368 0.081779525 0.65789235
0.052267674 0.083911233 0.65789253
0.059717815 0.084274665 0.65789264
0.068089478 0.084274694 0.65789318
0.076242767 0.084420316 0.65789336
-0.088739313 0.089855529 0.65789109
-0.083700404 0.091163144 0.65789121
-0.07646095 0.092088029 0.65789175
-0.06906978 0.091152817 0.65789163
-0.063066326 0.088739343 0.65789133
-0.017773656 0.091701746 0.65789229
-0.011720308 0.092088155 0.65789235
-0.0039067701 0.09208817 0.65789241
0.0039067715 0.092088185 0.65789258
0.010669756 0.091628551 0.6578927
0.017301416 0.088739522 0.65789264
0.054508816 0.089483745 0.65789324
0.060081288 0.091724887 0.65789372
0.068089552 0.092088304 0.65789396
0.076461233 0.092088349 0.65789407
0.081174187 0.092708498 0.65789402
-0.07582318 0.097270533 0.65789193
-0.071996137 0.096552953 0.65789193
-0.016591104 0.099292926 0.657893
-0.011720324 0.099901803 0.65789318
-0.0039067743 0.099901803 0.65789318
0.0039067757 0.09990184 0.65789372
0.0092088282 0.099273957 0.65789342
0.062322438 0.09729743 0.65789413
0.06807664 0.099097282 0.65789419
0.075484596 0.097530015 0.65789431
-0.016185217 0.10436673 0.65789348
-0.01157784 0.10759673 0.65789407
-0.003906779 0.1077155 0.65789413
0.0037642831 0.10759676 0.65789407
0.0083716698 0.10492492 0.65789396
-0.010813415 0.11483151 0.65789437
-0.0039067823 0.11497105 0.65789443
0.002827768 0.11478506 0.65789455
