# .PCD v0.7 - Point Cloud Data file format
VERSION 0.7
FIELDS x y z
SIZE 4 4 4
TYPE F F F
COUNT 1 1 1
WIDTH 374
HEIGHT 1
VIEWPOINT 0 0 0 1 0 0 0
POINTS 374
DATA ascii
-0.048676975 -0.26449779 0.69132233
-0.044212852 -0.26654467 0.69133204
-0.036166463 -0.26548135 0.69133836
-0.028004849 -0.26465324 0.69134539
-0.019354446 -0.26532295 0.69135654
-0.01196475 -0.26650921 0.69136745
-0.0041056112 -0.26745188 0.6913783
0.0039204569 -0.26714623 0.69138646
0.01213942 -0.2667293 0.69139457
0.019160129 -0.26530913 0.69139886
-0.04910256 -0.25916135 0.69130915
-0.04398483 -0.25980386 0.69131625
-0.035774786 -0.25980723 0.69132543
-0.027564541 -0.2598106 0.69133437
-0.019940548 -0.25981373 0.69134277
-0.012203789 -0.25969967 0.69153214
-0.0041092341 -0.26007357 0.69204289
0.0041082166 -0.26000622 0.69186163
0.012295655 -0.25979012 0.69153208
0.019941825 -0.25983027 0.6913867
0.027156323 -0.25918752 0.69139308
0.033041243 -0.25709602 0.69139457
-0.050140757 -0.25129023 0.69128937
-0.04398359 -0.2515862 0.69129688
-0.03577378 -0.25158951 0.69130582
-0.027564965 -0.25160518 0.69134927
-0.020593816 -0.252996 0.69218177
-0.013994126 -0.25508294 0.6931532
0.014545425 -0.25491834 0.69278532
0.020373885 -0.25320733 0.69205236
0.027568243 -0.25163591 0.69143426
0.035234179 -0.25118843 0.69138306
0.040860955 -0.24848934 0.69138283
-0.051170338 -0.24370706 0.69127029
-0.043982442 -0.24395595 0.6912787
-0.035772849 -0.24395916 0.69128782
-0.029246688 -0.24497336 0.69204813
0.029265435 -0.24479508 0.69227624
0.035695534 -0.24389467 0.69137567
0.043703206 -0.2436251 0.69137436
0.051741175 -0.24248733 0.6913805
0.059708171 -0.24141335 0.69138676
-0.056880616 -0.23280004 0.69123805
-0.052040707 -0.23619822 0.69125146
-0.043981288 -0.23632617 0.69126058
-0.036216769 -0.23668885 0.69144481
0.036377635 -0.23654574 0.69165981
0.04398746 -0.23635924 0.69135743
0.052199129 -0.23636234 0.69136649
0.060181525 -0.23651847 0.69137555
-0.057305995 -0.22746485 0.69122487
-0.052188966 -0.2281069 0.69123203
-0.043980043 -0.22810991 0.6912412
-0.037917234 -0.22839795 0.69134051
0.03774621 -0.22842321 0.69192255
0.043986224 -0.22814184 0.69133782
0.052197669 -0.22814484 0.69134694
0.059201766 -0.22842357 0.69135535
-0.058343824 -0.21959566 0.69120508
-0.052187506 -0.21989119 0.69121253
-0.043978803 -0.21989405 0.69122165
-0.038080052 -0.21978846 0.69156557
0.038181134 -0.21976213 0.6913594
0.043984983 -0.21992482 0.69131833
0.05219619 -0.21992773 0.69132745
0.058221519 -0.2203567 0.69133514
-0.059443474 -0.21138807 0.6911844
-0.052186023 -0.21167596 0.69119316
-0.043977562 -0.21167874 0.6912021
-0.037645113 -0.21111752 0.69120789
0.037914854 -0.21145117 0.69129163
0.043983743 -0.2117084 0.6912989
0.052194703 -0.21171112 0.69130802
0.057278037 -0.21288663 0.69131631
-0.065172911 -0.20080219 0.6921165
-0.060306892 -0.20397373 0.69116586
-0.052184656 -0.20404795 0.69117498
-0.043976407 -0.20405059 0.69118404
-0.036404509 -0.20383513 0.69119179
0.036293313 -0.20381585 0.6912716
0.043982584 -0.20407915 0.69128084
0.051922683 -0.20421718 0.69128984
-0.064268038 -0.1998795 0.69503015
-0.059513908 -0.19834442 0.69173795
-0.052121446 -0.19653386 0.69130081
-0.043975264 -0.19642287 0.69116592
-0.035767004 -0.19642545 0.69117498
-0.029153254 -0.19539481 0.69117981
0.028988678 -0.19501695 0.69124275
0.035771098 -0.1964478 0.6912536
0.043981429 -0.19645037 0.69126272
0.050984584 -0.19672872 0.69127107
-0.049961545 -0.18994482 0.69177991
-0.043977723 -0.18822326 0.69120032
-0.035766002 -0.18821131 0.69115543
-0.02755777 -0.18821375 0.69116443
-0.020348158 -0.18686865 0.69116926
-0.013681334 -0.18547986 0.69117326
0.013193286 -0.18529223 0.69120234
0.020565141 -0.18713853 0.69121492
0.027560197 -0.18823028 0.69122511
0.035770092 -0.18823278 0.69123405
0.043980196 -0.18823521 0.69124323
0.050004695 -0.18866377 0.69125086
-0.04243838 -0.18052937 0.69115871
-0.035764996 -0.17999764 0.69113594
-0.027556993 -0.17999999 0.69114488
-0.019935086 -0.18000218 0.69115335
-0.01231299 -0.18000439 0.69116169
-0.0041043796 -0.18000673 0.69117069
0.0041044489 -0.18000908 0.69117987
0.012313494 -0.18001144 0.69118887
0.019936364 -0.18001361 0.69119716
0.027559418 -0.1800158 0.69120568
0.035769079 -0.18001813 0.69121468
0.043978956 -0.18002048 0.69122368
0.049061552 -0.18119544 0.69123203
-0.041235808 -0.17240867 0.69111186
-0.035763975 -0.17178445 0.69111651
-0.027556211 -0.1717867 0.69112545
-0.019934524 -0.17178875 0.69113386
-0.012312644 -0.17179087 0.69114232
-0.0041042622 -0.1717931 0.69115126
0.0041043335 -0.17179534 0.69116026
0.012313146 -0.17179757 0.69116932
0.0199358 -0.17179966 0.69117779
0.027493818 -0.17181855 0.69135404
0.035628021 -0.17287584 0.69155806
0.043792017 -0.17319316 0.69163972
-0.040453151 -0.16533028 0.69109595
-0.035762973 -0.16357169 0.69109684
-0.027555428 -0.16357383 0.69110596
-0.019933961 -0.16357581 0.69111443
-0.012312294 -0.1635778 0.69112271
-0.0041041463 -0.16357994 0.69113177
0.0041042184 -0.16358206 0.69114083
0.012313017 -0.16358642 0.69115937
0.019259317 -0.16526842 0.69158739
0.025043476 -0.16707051 0.69296944
-0.040451683 -0.15477166 0.69107091
-0.035762042 -0.15594599 0.69107884
-0.027554713 -0.15594803 0.69108784
-0.01993344 -0.15594991 0.69109619
-0.012311975 -0.15595181 0.69110465
-0.0041040406 -0.15595385 0.69111377
0.0041041104 -0.15595591 0.69112283
0.010726255 -0.15652496 0.69167715
-0.040939223 -0.14783068 0.69105387
-0.035761099 -0.14832067 0.69106066
-0.027553994 -0.14832263 0.69106984
-0.019932918 -0.14832442 0.69107819
-0.012311653 -0.14832622 0.69108659
-0.0041039316 -0.14832817 0.69109571
0.003354453 -0.14874788 0.69137299
-0.041728582 -0.13994797 0.69103432
-0.035760086 -0.14010926 0.69104135
-0.02755321 -0.1401111 0.69105017
-0.019932356 -0.1401128 0.69105864
-0.012311303 -0.14011449 0.69106704
-0.0041038161 -0.14011633 0.69107616
0.0015530486 -0.14079416 0.69135761
-0.042402379 -0.13170142 0.69101399
-0.035759084 -0.13189831 0.69102174
-0.027552439 -0.13190001 0.69103086
-0.019931791 -0.13190162 0.6910392
-0.012310958 -0.13190325 0.69104761
-0.0042533879 -0.13203162 0.69106692
0.00058625446 -0.13483854 0.69106877
-0.043069594 -0.12350117 0.69099379
-0.035758078 -0.12368781 0.69100231
-0.02755166 -0.12368945 0.69101131
-0.019931231 -0.12369093 0.69101971
-0.012310609 -0.12369245 0.69102806
-0.0053833853 -0.12404277 0.69120026
-0.043787263 -0.11594544 0.69097507
-0.035757136 -0.11606422 0.69098413
-0.027550939 -0.11606573 0.69099325
-0.019930711 -0.11606712 0.69100165
-0.012310288 -0.11606852 0.69101018
-0.0066867536 -0.11649812 0.69147885
-0.048650701 -0.10726601 0.69094914
-0.043961968 -0.10843957 0.69095713
-0.035756201 -0.10844098 0.69096613
-0.027550219 -0.1084424 0.69097513
-0.019930188 -0.10844371 0.69098347
-0.012459631 -0.10856977 0.69099206
-0.0076369937 -0.11102761 0.69249105
-0.049319256 -0.099727079 0.69093043
-0.043960735 -0.10023052 0.69093764
-0.035755191 -0.10023183 0.69094652
-0.027549442 -0.10023313 0.69095564
-0.019929627 -0.10023435 0.69096404
-0.013589186 -0.10056049 0.6910094
-0.050024111 -0.091766112 0.69091088
-0.043959491 -0.092021905 0.69091815
-0.035754189 -0.092023112 0.69092715
-0.027548669 -0.092024319 0.69093609
-0.019929066 -0.092025436 0.69094455
-0.014951936 -0.092717864 0.69119471
-0.05068849 -0.08358594 0.69089073
-0.043958254 -0.083813764 0.6908986
-0.035753183 -0.083814867 0.6909076
-0.027547892 -0.083815962 0.69091672
-0.020077255 -0.083974317 0.69101554
-0.015859533 -0.08693248 0.69240737
-0.051429074 -0.075458631 0.69087058
-0.04395701 -0.075606085 0.69087923
-0.03575217 -0.075607084 0.69088799
-0.027547114 -0.075608067 0.69089729
-0.021227427 -0.076212898 0.69127446
-0.052074507 -0.067912728 0.69085199
-0.043955866 -0.067985095 0.69086117
-0.035751238 -0.067985974 0.69087005
-0.027546391 -0.067986861 0.69087917
-0.022527069 -0.069088072 0.69101089
-0.057107251 -0.059711941 0.69082701
-0.052158911 -0.06036371 0.69083399
-0.043954708 -0.0603645 0.69084299
-0.035750296 -0.060365289 0.69085193
-0.028078625 -0.060651802 0.69093639
-0.057821888 -0.051766235 0.6908074
-0.052157439 -0.052157465 0.6908145
-0.043953471 -0.052158147 0.69082344
-0.035749286 -0.052158829 0.69083256
-0.029332077 -0.052520417 0.69102484
-0.058796894 -0.043755848 0.69078726
-0.052155975 -0.043951686 0.69079506
-0.043952238 -0.04395226 0.690804
-0.035748281 -0.04395283 0.69081312
-0.030493369 -0.044862255 0.69127107
-0.059546452 -0.035565615 0.69076699
-0.052154504 -0.03574637 0.69077551
-0.043950997 -0.035746835 0.69078451
-0.035984851 -0.035908848 0.69096822
-0.065042809 -0.024610795 0.69073492
-0.060356095 -0.027541155 0.69074702
-0.052153029 -0.027541513 0.69075596
-0.04394976 -0.02754187 0.69076496
-0.037273686 -0.027896905 0.69084972
-0.065432228 -0.019336702 0.69072193
-0.060354512 -0.019922864 0.6907289
-0.052151669 -0.019923124 0.69073796
-0.043948606 -0.019923387 0.69074708
-0.038353 -0.020290177 0.69129747
-0.066207469 -0.011835554 0.69066054
-0.060352929 -0.012304987 0.69071072
-0.052150302 -0.012305149 0.69071978
-0.044021308 -0.012378704 0.69073933
-0.039296761 -0.014661886 0.69138032
-0.074319176 -0.0017555769 0.68981439
-0.068264879 -0.0038928736 0.68982607
-0.060282353 -0.0040972466 0.68990529
-0.052105032 -0.0040992573 0.69012392
-0.044828981 -0.0042870077 0.69054389
-0.08055792 0.0072170519 0.68978626
-0.075795762 0.004373407 0.68979824
-0.0692361 0.0030697074 0.69005847
-0.06027535 0.001170394 0.68982297
-0.051432718 0.0032511083 0.6898278
-0.044213384 0.004253285 0.69001544
-0.080751546 0.012288258 0.68977404
-0.076027296 0.012242998 0.69026905
-0.071976073 0.00877757 0.68979198
-0.048863463 0.0096556507 0.68981534
-0.043889273 0.01228898 0.68981457
-0.080651894 0.019992292 0.68975574
-0.0759973 0.020486066 0.68998557
-0.071530804 0.023063118 0.69001502
-0.049419876 0.022183077 0.689785
-0.044091593 0.020277543 0.68979537
-0.075439997 0.027626488 0.68974346
-0.068668112 0.028244857 0.69007564
-0.060183279 0.029341972 0.69025546
-0.051838357 0.028282281 0.68976784
-0.045482196 0.027360693 0.69006813
-0.073140398 0.032181773 0.68973517
-0.067874521 0.033564921 0.68973756
-0.060268544 0.033937629 0.68974525
-0.053178828 0.033352941 0.68975431
-0.009500335 -0.25652042 0.69996381
-0.0043954584 -0.2576898 0.70023811
0.0045283604 -0.25746712 0.69991714
0.009941482 -0.25685638 0.69967014
-0.02431462 -0.24848008 0.69906688
-0.019392019 -0.25244749 0.70019877
-0.013060589 -0.25527841 0.69981813
0.013907764 -0.25502491 0.69930387
0.020014802 -0.25201192 0.69996148
0.024352744 -0.24886978 0.70016289
-0.028496526 -0.24439237 0.69981486
0.028351743 -0.24438818 0.69987684
-0.033807743 -0.23546696 0.69916451
0.033671349 -0.23614441 0.69941169
-0.03625251 -0.22998889 0.70055681
0.035975762 -0.22953492 0.70096755
-0.06473726 -0.200151 0.70010459
-0.059764221 -0.19711012 0.7000522
-0.054054633 -0.19334814 0.70020974
-0.050043784 -0.18840761 0.70061523
-0.046807516 -0.18426757 0.69843113
-0.045716651 -0.18286383 0.69987226
0.029876068 -0.16897069 0.69970447
0.036704857 -0.17085619 0.69972783
0.043996468 -0.17122345 0.70082736
0.015972137 -0.16031294 0.69732362
0.019834517 -0.16392024 0.7001158
0.025847334 -0.16725788 0.7003994
0.012466215 -0.15642546 0.69978911
0.0060606259 -0.14868966 0.70054787
0.0021794315 -0.1388305 0.7003603
-0.00059189968 -0.13080983 0.69772321
0.00059400563 -0.13424259 0.70020568
-0.002965891 -0.12394051 0.69905281
-0.0059447195 -0.1153212 0.70072192
-0.0088980841 -0.10677435 0.69926262
-0.0077388627 -0.11012997 0.70172811
-0.01104199 -0.10057064 0.69983399
-0.014234136 -0.091333039 0.69911128
-0.016638186 -0.08437708 0.70044756
-0.019912658 -0.074901804 0.70072246
-0.022350607 -0.067846395 0.69949627
-0.024886206 -0.060438111 0.6984657
-0.027134614 -0.053274214 0.70040709
-0.02965619 -0.045080222 0.69918084
-0.032726482 -0.035106588 0.70140958
-0.03147025 -0.039186865 0.69993776
-0.034957811 -0.027854035 0.69847029
-0.037486296 -0.019641565 0.70143336
-0.040800385 -0.0088696489 0.69702804
-0.03970084 -0.012443547 0.69848967
-0.041965511 -0.0035752971 0.70168787
-0.069125541 0.0053460211 0.70047337
-0.040921483 0.0041514547 0.69909686
-0.073319033 0.011325705 0.70266241
-0.071957752 0.0089203827 0.701015
-0.03971044 0.012445049 0.69865876
-0.07251922 0.020212526 0.70071101
-0.071147971 0.022532497 0.6989193
-0.041204322 0.023289401 0.70392889
-0.039688736 0.018957146 0.6982767
-0.067040689 0.02610568 0.69936657
-0.044464663 0.029050246 0.69885778
-0.01015576 -0.25628358 0.70420414
-0.0029884446 -0.2576983 0.70480567
0.0029871271 -0.25754434 0.70438457
0.011348903 -0.2562463 0.70410168
-0.020623544 -0.25137395 0.70467532
-0.013149961 -0.25523806 0.70461619
0.013740305 -0.25509176 0.70421231
0.018525613 -0.25278145 0.70443374
0.029293025 -0.24331528 0.70470828
-0.034071844 -0.2349184 0.70462608
-0.031698976 -0.23983565 0.7050249
0.033471212 -0.23668782 0.70455778
-0.036468025 -0.22777569 0.70472145
0.035289668 -0.23147629 0.7050674
-0.060961623 -0.19782926 0.70452958
-0.04724877 -0.18480848 0.70501524
0.030496329 -0.16922472 0.70487559
0.032850698 -0.17022635 0.70407188
0.020130284 -0.16442709 0.70481443
0.024493588 -0.16667588 0.70421237
0.0077699684 -0.15121554 0.70454866
-0.00059724692 -0.13079707 0.70402652
-0.0017934636 -0.12733592 0.70470345
-0.012549302 -0.096211307 0.70442593
-0.023296671 -0.065111212 0.70414865
-0.025693567 -0.05795991 0.70435411
-0.030474711 -0.042425577 0.70437592
-0.035256151 -0.026890283 0.70439774
-0.040037889 -0.011354028 0.70441961
-0.040631041 0.0053784074 0.70434606
-0.073505595 0.0185258 0.70445031
-0.06990809 0.024497708 0.7043308
